# 3D point list with one line of data per point:
#   POINT3D_ID, X, Y, Z, R, G, B, ERROR, TRACK[] as (IMAGE_ID, POINT2D_IDX)
# Number of points: 298, mean track length: 6.1703438867196692
2375 0.95188629145804393 -1.5999279017269834 6.2364319925850191 244 234 233 1.6408952408253619 9 2330 13 1763 3 2157 2 3387 4 2970
1782 0.50179796495097218 1.0298815749816883 4.0704172463368167 253 252 248 0.35853429116913144 15 4908 9 2810 7 1877 10 1657 11 3262 3 2661 2 4016 4 3335 8 2960 1 2120 5 2160 6 4373 12 1750 14 4973 44 3854 38 2255
2888 -0.034631516705434164 1.7190138808477775 3.537192335254288 219 214 211 0.25040442715490885 9 3838 13 3333 16 3709 7 3368
2882 -1.0748314805225661 1.6905426042305547 3.5824962606345845 115 112 103 0.85630134240587186 15 2669 13 3303 10 3872
1789 -0.98861044275667598 1.0592013957960298 4.1029969849714822 194 185 178 1.3491736919671502 15 4925 9 2843 13 2771 13 2786 16 1502 16 3132 11 2994 5 3501 6 4469 44 3817
2749 0.41037446079948242 1.2372638867659151 3.9022117641894334 250 251 246 1.0226333568493653 9 2909 13 2918 16 3269 3 844 2 527 11 134 8 3393 5 2230 5 2242 6 4293 14 4851 17 2714 44 4535 42 2392 49 1233 19 2003 18 1881 21 2920 29 1605 23 5066 31 5560
2230 -2.4777061405667302 -2.9397466792380649 7.4233913443345783 215 206 199 1.0416143962754634 9 1350 15 1543 13 1397 16 6114 7 1588 11 2339 3 1214 2 1087 4 1045 1 3319 5 1191 40 3495
2747 -1.3344209568740109 1.2549259606305132 3.991036358352571 172 163 156 0.25131629815562762 15 2354 13 2916 2 4001
14981 0.54566299382411365 1.7384202043707473 3.6505100305237277 133 124 119 0.8508231988532845 48 2872 50 2624 51 1852
1802 -0.60964401989750172 1.1607502708117787 4.0006232433464728 146 142 133 1.4357937463178161 15 4971 9 383 16 28 15 2316 11 2340 3 312 2 379
14526 0.13352059485879389 -0.1349742407438109 4.9882354474886688 170 166 157 0.38491273646058805 38 418 48 3708
1807 -0.9367498579461021 1.2055268729356972 4.0022570013305092 242 233 226 0.54699061955327211 15 4985 9 1568 13 2885 16 3233 10 3680 3 2262 4 3446 1 2184 46 4396 41 5060
5983 0.71942019402182578 -0.38210990820820456 5.2471621722650807 125 126 120 0.95181364999651441 13 5329 16 2504 10 3275 11 2692 3 2315 5 2837
1808 -0.21024366255340279 2.2129767613711819 3.1241771433547942 195 188 180 1.252078269859825 15 4996 9 3236 7 4660 11 3760 3 3229 4 3589 8 3230 1 563
6787 1.354264820531071 -0.10929807241939075 5.0015966880547165 229 220 211 1.3402671821148637 13 5414 3 921 8 2756
2701 1.2203277048546144 1.0478363085664903 4.0595276659487327 198 188 189 0.6966764651567976 15 4921 13 2784 10 3630
1816 1.0057997879031386 1.38379268899727 3.7546056201287072 249 240 235 1.8554669400108275 15 5016 9 2735 16 3376 10 4402 11 1843 3 3518 2 4311 7 4199 4 2085 4 2093 8 1779 8 1787 1 2227 6 4035 5 2433 12 1951 14 886 17 3969 19 2183
1818 0.45986402857091502 1.6405684662889752 3.5735447662245856 207 202 199 1.1906054765272889 15 5025 9 798 13 2167 16 3621 7 885 11 4484 3 2859 8 1324 1 1287
1823 1.0741832851550874 1.5599278302019832 3.6209282527909337 247 237 236 0.44076870633419057 15 5036 9 807 13 3204 16 3551 7 2024 11 1912 4 667 8 1301 1 1273
2508 -0.18546881489793321 1.5429507324129605 3.6839642693671948 184 178 178 0.35763980913731525 15 2558 13 2127 16 2006 3 1554 4 2192 8 1868 1 2326 5 2336 44 4107 40 4575 46 4268
3521 1.8601973086898762 -0.63597517332336573 5.3733079212090216 247 237 236 0.59001170242791812 9 2442 13 5242 16 5901 10 3231 8 2698
2134 -1.4740264558656 1.8012664143713812 3.5563217043885214 220 211 204 0.45162236342227502 15 1963 13 1106 2 787 5 2278 6 2231 12 2513 17 2352 44 4206 40 1906 46 548 42 2481 48 1794 50 3860 41 2227 19 4078 45 798 47 840
3530 -0.98780518950761087 -0.48503975024864648 5.3811204880481682 208 205 196 0.37954726566798574 15 4442 13 5293 16 5936 7 3074 10 2137
2651 -1.7186841976971232 0.80203274037805661 4.4631026467291521 77 68 61 0.92407299704145929 15 4802 13 2634 7 2200 2 3783
1839 -0.078046625933298822 2.0488217876327433 3.27891768348162 180 171 170 0.42721202331323799 15 5077 9 2978 13 1621 11 3471
1840 0.57451010207052755 2.0369893302229563 3.2581933653844466 220 215 212 1.7049583345738535 15 5079 9 2951 7 3728 3 3040 2 2699 4 2563 4 3951 8 2690 1 3139
2733 -0.6784039230525889 1.2001765256019563 4.0309515813836807 173 170 161 0.64865164136043507 9 2906 13 2871 16 3225 10 2369 11 1808 3 2113 8 3254 5 2110
1842 -0.53773687254740854 2.3600795183384147 3.056694374833163 200 196 187 0.83260378597286011 15 5091 9 103 4 141 8 178 1 163
3537 -0.83779724856573601 -0.46379949266625992 5.4049221845320439 111 108 98 1.8827676825247959 15 4456 13 5310 7 3084 11 2674 2 3539 9 2485 4 3082
3546 -2.0396662757680994 -0.37950447094591078 5.3808260889858683 132 123 116 1.5552119538702398 9 955 15 4487 7 1720 11 958 3 2296 2 3508 5 3191 6 2805 40 3894 4 3109 46 3287 41 2208
1850 0.63947807143323832 -0.24604973086351073 5.1019867268658619 247 250 237 0.46958762101227686 15 5139 9 2503 13 1870 16 2178 7 1212 11 2720 3 3703 2 1374 5 1416 6 2998 44 4390 42 3728 38 3493 48 1673 50 1393 51 3783
6837 -3.5490159496715821 -4.6536584933670477 9.0451167942095907 198 194 185 1.6903905695867327 7 2508 3 1894 4 1154 8 2537
7641 -3.5819713852261414 -6.6274584296007637 10.516809506601078 188 184 175 0.22529403371163398 13 1530 4 2715
1855 -2.0357421479930919 -1.7803690321988168 6.567263202673236 229 220 213 1.1867442826359418 15 5160 13 5036 16 5631 3 2137
15091 1.1278900369631955 0.21454646894621068 4.6966535663456961 163 159 149 0.51769403845273443 49 4278 50 3771 51 1651
1856 -1.2519157955350402 -0.089868960196599651 5.0659227137057954 152 143 136 2.4456508861270203 15 2 13 3 16 5 7 3 10 4 11 5 1 1974 10 3340 13 5426 16 6085
2813 -1.4428961633124218 1.4720015695038533 3.8237797545604706 152 149 140 1.298191632662234 15 2496 13 3090 16 3439 7 1970 10 3774 3 3547 2 1960 6 3281 12 2418 14 3677 17 4427 40 4560 44 3986 46 2008 42 2332 38 2246 48 1323 50 1621 41 4564 45 4280
1858 -0.038589187378960818 0.96978539674107367 3.8194905749534405 103 96 165 0.7087537050700996 15 28 13 25 16 27 10 22
2294 1.3438009283107553 -3.4678745504578696 7.6593329424094163 227 218 211 0.36528703941464508 15 4029 13 1560 7 2629
1863 0.71393648195692394 1.3191692195691016 3.8303879004390877 207 203 200 1.420711515001871 15 30 13 45 16 36 7 29 10 35 11 32 3 33 2 28 8 26 5 26 6 26 46 43 41 45 45 38 47 56 43 55
2811 0.38811796494860584 1.4505160688925798 3.7971463647970642 216 215 211 0.91576839539888111 15 2494 13 3085 10 1837
1864 0.87688848921285534 1.4569753211835175 3.7091110734732986 221 216 212 0.74573773973795598 15 38 13 53 7 37 4 84 1 67
14590 1.7880851258526336 1.9695669926541637 3.2425693430382458 123 116 106 0.33261611255112677 49 4005 48 4323 50 4717 51 2087
1871 1.7391047866398741 -0.48937813913336264 5.2831958035643893 222 212 211 1.0845224023005502 9 174 13 91 16 79 7 139 10 90 11 125 4 112 8 152
1888 -1.2003674407908753 2.3258270392174358 3.1092811224676731 203 194 187 0.65356372225023607 15 122 13 152 16 228 2 124 5 255 6 246 12 248 44 239 40 161 46 143 41 183 45 151 47 164
2717 -1.0283678565687404 1.1156505451212959 4.088389895698473 212 205 197 0.55129056292320378 15 1 13 2826 10 2355 4 3410
1890 0.58542959155656793 2.2366301755917353 3.1059965718034048 160 151 152 1.5425095844557399 15 3319 13 159 16 4310 10 251 11 3817 4 3592 8 1586 1 2937
1895 0.46477030806576408 1.8732089547610349 3.3953180836536254 196 191 188 1.003587186703613 15 147 13 182 7 184 3 160 2 135 5 156 6 145 44 228 46 315 38 2703 49 1957
2715 1.149541619430525 1.0927411298245662 3.9791303290374773 205 195 196 0.18236249274494118 15 4948 13 2820 7 4364
1904 -0.4962260367030964 1.3259890423133569 3.8954219942544706 189 180 178 1.4010197495609904 15 2413 13 207 16 3307 10 3712 3 3625 2 4102 40 4435
6883 -1.1556653814094422 0.72695967908349557 4.2929946001790444 173 166 158 0.93248402715150036 7 4658 11 1738 3 2493
2797 -1.1657321113708077 1.4107540425556104 3.836803368471867 237 230 222 0.21004838764528744 15 2465 13 3055 16 3378 7 4210 11 4196
1906 -0.51377394471048021 1.163487087937596 4.0193286981389775 185 177 174 0.8708131177335765 15 174 13 214 16 128 7 106 3 2308 4 184 46 281 41 231
1911 1.1915252800176916 0.13001696975560981 4.9989817687975631 234 224 225 1.0087526657289037 15 188 13 230 10 364
2795 0.47375743377809726 1.3912037591975048 3.770557293300099 226 225 221 0.89436778234026804 9 1601 13 3051 7 4213 11 4214 2 2028 4 2095 8 1781 1 2239 5 2345 6 4191 14 4728 44 4023 42 2464 49 2692
1912 0.58988897490764636 0.079267623182534122 4.8429064807250031 220 216 215 1.3487447791122276 9 313 13 231 16 2568 7 3215 10 446 4 575 8 587 1 1981
1914 1.7346413193065509 -1.1902193467604265 5.825350963223844 249 240 239 0.91054773403317868 9 335 13 239 16 449 7 245 10 727 11 199 4 372 8 557 3 179 1 491
6382 -0.44091218315213193 1.1577326578571667 4.0204255538593063 223 212 218 0.27005245926939037 10 3666 16 6219 11 2335 4 3413
1923 0.50004570159109063 0.41170922947290123 4.5787871215778129 228 222 230 2.0757022609750502 15 4656 10 4422 2 352 4 383 6 3179 12 2399 14 17 13 272
6672 -0.95554066490606193 -1.1412684246469171 5.8953632603391943 139 133 128 1.1534466656638338 13 805 16 931 10 1155 11 1601 7 1672 15 204 2 1315 4 1163 40 3745 46 1641 44 173 41 1749
14858 -2.1361137271609629 -0.020684971112309741 4.9963562610554 195 191 180 0.52447376146178037 48 1230 49 1086 50 1245
1925 1.3350878698162414 1.0375867312503844 4.0285690314209068 185 175 176 0.5925961240398705 9 374 13 291 16 1080 10 287 11 426 1 735
2584 0.36804668723997908 2.1028875857121756 3.2094526344750931 217 212 209 0.45551418069156707 9 1866 13 2385 16 4117 7 3800 11 1248 3 1025 2 1846 4 3459 8 1495 1 3062 5 3709 6 3159 12 2093 14 4096 40 2713 46 2125 19 2134
1931 -1.4416959765508406 1.6758126321685929 3.6532820667079426 181 175 166 1.0536582164638069 15 267 13 324 7 342 3 377 2 508 5 436 6 866 12 797 14 1092 17 696 44 546 42 820 49 1211 38 680 50 1647 51 57 19 4060 18 773 21 772 23 3721
2578 -1.3175851226940463 2.0687957773100019 3.2781251037708206 151 142 135 1.5163069311882682 15 1040 13 2364 7 1244 3 2952 7 3729 2 1690 5 2487 44 2157 40 1007 46 585 42 1733
1934 0.15275200541496578 1.8249445201232131 3.4570667708918603 187 182 179 1.1016794809959052 9 229 13 339 3 256 4 229 5 575 6 1945 46 516 42 594 38 2635 51 2591
6175 2.2359793307909563 -2.5489588823942908 7.0067830361931094 158 152 147 1.7968187222126601 15 4149 16 4482 9 1360 13 1414 16 2318 7 1123 10 1088 11 1535 4 2879 4 2882
1941 1.3710576616486718 -0.36568293631783511 5.1639455329289401 193 183 184 1.7454782402891407 15 195 13 375 16 174 3 2321 4 1080 11 960 8 576
6682 0.96947278363331268 1.7469238183088507 3.4652463934508835 188 178 177 1.661552114383162 15 1950 9 774 13 3368 7 859 11 1977 15 2748 9 1720 13 3387 16 1735 7 2098 10 812 2 1707 4 2298 4 2310 8 1362 8 2012 1 2363 5 1786 6 3902 14 794 42 2775 49 1981 50 2768 51 2788
1942 -1.5483490693454109 1.4461381261332085 3.8549530328819284 206 204 195 0.73778197976759707 15 253 13 377 7 325 3 224 2 401 5 423 6 889 12 469 14 482 17 410 44 399 40 523 46 307 42 415 49 1184 48 1320 50 1613 51 1192 41 484 19 744 45 503 47 888 43 296 37 283 39 629 36 244 35 201 18 762
2664 -1.7043523010080008 0.88190479464510763 4.2989437813301006 63 54 47 0.94228161968276025 15 4833 13 2667 7 4490 3 3722 2 3803 40 4262
1947 -2.1857915068565439 -1.3483811153475747 6.047573436791021 193 184 177 1.2262183909350095 15 4294 13 415 3 2156
2658 0.9802985725430956 0.83400863055203567 4.2366888077779317 224 214 215 0.86393150732946045 15 4820 13 2651 16 3016 7 987 13 425 10 3552 11 892 3 873 4 3269 1 2071
1950 -1.5980495184930892 -5.4264497266103389 9.3036158329224232 158 160 149 1.4720121246393945 9 201 15 5222 13 434 16 304 7 1495 11 2139 3 1175 4 352 8 319 46 1477
14848 -4.6470325989183463 -1.5082099358954468 6.3327521559518081 230 226 215 0.55218686309092957 48 1605 50 1191 51 1409
1971 0.90444039409859522 -0.71815821091007848 5.4305476423713399 229 229 221 0.91637211353671566 15 5145 13 500 16 5866 7 1079 9 339 10 533 11 389 3 511 2 337 4 1072 8 568 1 778 40 1493 44 355 42 368 38 413 49 465 48 3666
1973 -1.0496624437940245 0.049614781390136385 4.9441482860897183 128 119 112 0.45084836287619312 15 447 13 514 16 485 11 943 10 3371
6714 0.98355246339858615 2.0088026716912921 3.2756190092451778 201 197 198 1.3873504580678666 16 4032 7 3700 11 3410 15 3007 7 3699
1981 -1.3618597490635875 0.55100053184054998 4.569814035938955 223 214 207 1.0437499246187179 9 916 13 535 16 1022 7 410 11 912 3 1374 2 647 8 1709 5 1439 6 2997 12 3909 14 1161 44 649 40 760 46 2699 42 3808 41 1896
6433 1.9331357910333586 -0.63165829273243523 5.307921875288323 230 220 219 1.2212719799927252 16 2478 11 2634 1 1933
14922 1.5126588689890892 1.5433650136652275 3.6095789535052996 222 212 210 0.21724986834897395 49 1961 50 1877 51 2820
1989 -1.382098054137145 2.039166273035955 3.3530425634415981 201 192 185 0.5888701765091412 15 1034 13 550 7 3686 2 850 5 2457 6 4256 12 2635 17 1653 44 2139 40 999 46 2218 42 1719 41 1260 19 1792 45 2239 47 805 18 3385
1990 -1.3759606376513425 2.2476397540645134 3.1940783462267666 212 203 196 0.50324119139040946 15 1105 13 551 2 901 5 2052 6 1877 12 1801 44 1742 40 2115 46 1213 42 1774
3364 2.0723543539378664 -3.2464305952522388 7.4208812004123983 182 173 166 1.4552136570375347 9 2156 13 4749 16 5214 11 2286 1 1069
2135 -1.3417460439818893 1.7991751551932678 3.5529106208057772 196 187 180 0.87448096165825684 15 574 13 1108 16 607 7 508 10 814 3 397 2 789 5 756 6 1745 12 1713 44 2054 40 558 46 725 42 1662 38 2404 49 1777 48 1594 50 3883 41 989 45 811 14 1072 47 861 43 299 37 552 39 1147
3363 -1.6877079688801753 -3.2906128089922624 7.6060616540376813 158 155 146 1.2806509038853466 9 2174 13 4747 7 2669 2 4269 8 2574 1 1810
2003 -1.2459425443596808 1.9275443144074225 3.4488308716216474 159 150 143 0.98333603839383177 15 2882 13 617 7 3565 11 3310 3 412 3 2795 9 454 2 474 8 443 5 617 12 834 14 1545 17 1654 44 829 40 962 46 2165 42 1695 49 2702 48 1837 50 2267 41 3682 19 1801 45 2162 47 2218 18 2356 21 4204 23 4616
2215 1.1154693059543201 -4.0059474635534356 7.8966526458748687 218 209 202 1.5971660423599974 9 202 15 3918 13 1364 16 4925 7 2506 10 2694 16 4944 11 293
2006 0.68736122285267121 1.9432643044192253 3.3166269450061425 127 122 118 1.1784775622634138 15 1016 13 624 16 1810 9 1799 10 857 11 1391 2 2608 4 1651 1 3232 6 1256 12 1046 14 1550 17 2045 42 3516 44 2280 49 3530 48 2058 50 1870 51 1897 19 1002 18 2008
2011 -0.22479499345365603 1.7989197376537667 3.4926994254523018 219 215 206 0.99130990470315483 9 433 13 632 16 610 7 510 10 816 11 496 3 402 2 832 8 725 1 658 40 1875 44 823 42 1717 38 744 49 1315 48 2678 50 2422 51 1768
2361 -2.2785983382042514 -2.7470501465645287 7.2920229083448529 252 246 238 0.3900453556894326 9 2234 15 4134 13 1712 16 2285 7 2753 11 1534 3 2042
2013 -1.4347824023864115 1.7747561551354485 3.5749254858826878 210 201 194 0.49280821854530615 15 663 13 637 7 858 3 764 2 780 5 1040 6 1735 12 1705 14 2041 17 1620 44 2097 40 554 46 543 42 436 41 515 19 1769 45 537 47 630 43 529 37 908 39 1169
3379 -2.5565268814660356 -3.0239366008787179 7.4423907921463721 220 211 204 2.8019573752771394 9 2205 15 1539 13 4786 7 2695 4 2869
2019 -1.4927272445498991 1.6265120243775582 3.6984997258294787 200 203 192 0.49238115085570378 15 599 13 663 7 488 3 372 2 752 5 728 6 1700 12 1189 14 1542 17 1598 44 772 40 898 42 811 38 666 49 1200 48 3353 50 3792 41 500 19 1752 45 527 47 345 43 300 37 411 39 631 36 937 35 774 18 1650 21 4138 29 246 34 644
6768 -0.84563615317574869 -1.5542550790851712 6.2474662299281842 202 203 189 1.1147666810816808 3 313 46 104 40 91 41 74 45 124
2021 -1.4199420060635879 1.5453798623353878 3.7644222981298996 193 195 184 0.55215176994621129 15 610 13 668 16 698 7 482 10 658 3 367 2 520 5 717 6 876 12 788 14 3707 17 691 44 759 40 877 46 775 42 796 38 661 49 1195 48 1331 50 1632 51 1654 41 1043 19 1168 45 846 47 510 43 2360
2680 -1.3497955294236079 0.97235565349903796 4.2333304383743178 189 189 179 2.4342968796610931 9 2804 15 4867 13 2726 16 3079 10 3590 9 2813 8 3537
2029 1.154522356670457 1.2442323158403235 3.8776401113294789 233 222 226 1.0117292165236167 9 2904 13 699 16 730 7 4304 16 4993 10 1340 4 3422 8 646 1 722
2030 -0.27806833248064539 1.2342093653910504 3.9147010475152966 122 108 129 1.3565359267788004 9 1567 11 843 3 1462 2 213 2 4067 3 1933 1 2178 5 509 6 211 12 105
2095 1.4320956834018399 0.77735569801797033 4.2327025386054835 245 237 226 0.29419469701286116 9 2710 13 934 16 1043 10 1286 11 899
14912 -0.83101147519621832 1.7908008953280625 3.3450733554243244 154 146 133 1.2948853638791098 48 1836 50 1701 51 1706
2035 -0.87337890110930527 0.93521294803169575 4.1993660609031869 174 172 163 1.2526697534679301 9 2779 13 722 10 3576 16 6265 4 592 8 2926 1 738
2045 1.510212053021067 -0.34493520246412629 5.1448908892971943 253 247 248 0.61304128734828645 15 4476 13 748 16 957 7 1721 7 392 10 542 11 1643 3 1328 1 1123
2046 1.3285367461773725 -1.7733981607180453 6.3454328467847301 195 185 183 0.51223015983285936 15 695 13 751 16 905 10 1117 3 1267 2 1297 4 1301 1 1884
2992 -0.91500174706339921 1.9861594123761535 3.3815516494187374 164 159 150 0.1565287093468789 15 2953 13 3630 3 2888
2049 -1.8636080228486789 -2.0994764949651881 6.7145816257963835 184 175 168 1.7625897664968315 15 4205 13 767 16 432 11 4362 2 3240 2 3249 5 1314 44 3217 46 2939 42 3435 38 4325 11 2425
2051 -1.7104297030862727 -1.9975805921056708 6.7310326230857473 216 207 200 0.33306246724934907 15 694 13 773 16 897
3511 1.5032788871922982 -0.70007749725300417 5.4162176570026777 239 229 228 1.1845791838834441 15 4396 13 5225 16 5875 7 1077 10 3213 3 2260
2052 -1.4598814013237338 -1.816127581873568 6.5172535356791039 236 227 220 1.2954952586894477 15 697 13 777 16 901 7 1108 10 2038 11 2470 2 3310 16 5606 13 5010 5 3044 44 3250 40 3641 46 1619 41 1724
2996 -0.43162127088840796 1.989183731904242 3.3407400565685466 100 95 89 0.22295416672307039 9 3403 13 3643 16 3979 7 3646 11 3379 3 1722 8 2214 1 3169 5 2586 12 2900 14 4732 17 2724 44 2233 40 2627 42 2740 38 2641 49 2864 48 2749 50 2484 51 4786
2053 -1.0167807039887171 -1.7668294562452986 6.4055547900230279 197 188 180 1.0702963717337561 15 1588 13 779 3 2728 11 1568 8 2632 46 4657 41 3670 45 1079
3505 1.0666740839897968 -0.80530483080319482 5.5024992813855693 226 222 213 0.30769122841890284 15 4384 13 5201 16 2465
3000 -1.3412915712406146 2.0169724420812223 3.3829017195114157 168 159 152 1.4105650539036816 15 2986 13 3659 7 3659 7 3668 3 2906 2 2362
2057 0.79224391699479113 -1.5668342516355616 6.1314954038678282 211 203 208 2.2278460818073573 9 1381 13 790 16 5677 7 243 10 3090 11 2481 3 1270 2 1304 1 786 5 1122 44 3271 42 3543 49 4675
4026 -0.86620331818647667 2.3140625500677872 3.0976834265611584 210 209 207 1.1136192243866485 13 2496 16 1978 8 3405 16 4383 1 2530
2059 1.6977814642413602 -1.0200180001090351 5.5607765404820082 219 209 208 0.97658614534548305 9 980 13 808 11 990
3519 1.2864070334065858 -0.63302548741051179 5.3716440487839128 248 238 237 0.15073503909433636 15 4407 13 5240 10 3226
2060 -1.0910123691295215 -0.85512988334270668 5.7639100721583754 212 212 202 2.1277826692916055 15 4388 13 816 7 3019 10 432 16 235 11 2614 3 2232 2 3464 4 3057 46 3138
3004 0.98580728839581411 1.99522295173686 3.2971837888406026 219 208 212 0.58754556720161011 15 2995 13 3667 16 4012 7 1224 5 3754 6 3450
2061 1.0332924404266202 -0.78988762208406726 5.5181031263981222 186 182 173 1.4363085671881382 9 1408 13 818 16 939 10 1173 11 2613 2 3511 4 1138 8 2683 1 1927
14270 1.1655428908690502 0.071313798208687412 4.7601619612543429 214 210 198 0.4129719737783728 38 3580 48 1297 51 763
2063 1.1433634575045464 -0.60000208973285662 5.3711870873404957 255 254 249 0.57289382512958986 15 1643 13 827 16 949 7 1069 10 729 11 589 3 2272 2 1351
2064 1.5334608897211646 -0.55393727448862939 5.2981694246531346 221 211 210 1.0875667426728373 15 4421 13 830 16 5919 7 1066 11 2649 3 2281 4 3054 8 2702 46 1345 40 3793
5507 0.38877380120227745 2.0554267849638421 3.2477455654289171 220 215 212 0.67027473668830739 9 2985 7 3749 11 3492 3 3038 2 2680 8 3027 1 3117
2944 -0.69411691882108761 1.8583306552551042 3.4112101409999909 200 200 190 1.1890263170065163 15 2826 13 3492 16 3852 7 3511 10 838
2065 -1.9620950000795692 -0.49636388174813534 5.44905569983848 192 183 176 1.4049532814870234 9 2480 13 833 7 3070 3 2268 8 2725 1 1947 46 3253
3970 -0.80392422892614279 1.1857491891729233 3.9757137090642201 162 159 150 0.50291016550765655 13 2869 16 1531 10 3674
2067 -0.93852953950990492 -0.45129063075316206 5.3621656001786313 183 179 170 0.85692639542028937 15 743 13 835 7 1059 11 961 2 3528 4 3081 8 1114 40 4586 46 968 41 1797
2068 1.2366803741178789 -0.2904077237033601 5.1233379523546674 197 187 188 0.47677640462667137 15 749 13 842 7 3134 11 1649 2 4216
3457 0.89471638789928853 -1.7759571889058916 6.3867975229807978 192 183 176 1.6795525113644127 9 1375 13 5031 16 5625 7 2885 10 3061 11 1570 3 2142 2 4242 4 2955 1 1885
2070 0.79078320333361851 -0.24524480510154134 5.085879328672342 236 238 227 0.62848291431283476 15 751 13 845 16 961 7 768 11 1362 3 2336 2 3621 8 577 1 1954 5 1420 44 3503 40 3872 38 1496 49 3740 48 3744 50 3643 51 3805
2952 -0.85524539691339552 1.9023833156613454 3.4328674009515807 222 219 210 1.1538006540408958 9 1785 13 3517 7 3545 10 4013 11 4425 3 1671 4 1661 8 1417 1 1357
2073 1.9065969947405543 -4.610926321310286 8.6268051793642595 227 218 211 1.2007768857336965 9 2075 15 1245 13 850 11 1477 3 1889 4 2746
2074 1.4613524548790044 -0.024931318074742959 4.8960473580988904 255 250 251 0.82714536966306651 15 1694 13 858 16 973 7 3187 10 2189 11 949 9 950 4 3121
5525 0.9021648331029074 2.1246698119060707 3.1807985527215688 104 95 90 1.3132140020208118 9 3087 15 3153 7 3852 11 3606 2 2856 2 4310 8 3552 5 3858 6 3540
3978 1.1000940410018263 1.3265017844805884 3.8027502998428977 247 237 236 1.3123750381736665 13 3007 16 1578 11 1837 4 1457
3471 1.0104255144330363 -1.5099105270837323 6.1545746525447438 186 175 179 0.81876451892874125 15 1602 13 5091 2 3397 4 2976 40 159
2076 1.6544303519750336 0.0089834423070710365 4.8721560936315189 214 204 205 1.2632891626254159 9 2542 13 863 16 2650
2956 0.78644257703295783 1.8773178455415491 3.3668613029354368 202 196 196 0.89326155058070122 15 2866 13 3525 10 4129 2 2549 1 3285 5 3613
3465 1.7857660768884867 -1.5720526176988372 6.113558486666113 246 236 235 0.98697731301026015 15 419 13 5069 3 475 8 286 4 318
2079 -1.0210733745912519 -3.896484918620152 8.0579638854489755 203 204 194 2.0263163092558769 15 1501 13 877 9 1326 16 2226 7 3378 4 1148
6030 0.43619393349658375 1.9511919464687877 3.3449723660561781 202 197 194 0.45368056989059846 13 3604 10 4056 11 3328 3 1733 2 2574 4 1665 1 1366
2896 0.24796881975564192 1.7295511513608377 3.515699898396254 164 159 156 0.7046614959147518 9 773 13 3346 16 1212 7 2081 11 3953 2 1648 8 709 5 1704 12 1922 14 925 17 860 40 2371 19 2969 18 2828 21 2856 29 3202
5827 2.5834586532078476 -6.1862603633413453 9.7352206202250748 182 173 166 1.7162106741580578 7 2283 16 4445 10 1007 11 1450 3 1814 4 2696 8 2447 1 3305
2081 0.49964102534291271 0.32917005127965182 4.726164455059112 200 196 194 1.4690482723764733 15 4642 13 881 16 1004 7 3282 11 1695
3783 0.58993316133388962 0.5127226708480942 4.5183341352170787 217 213 214 2.4187359549500953 13 93 16 260 11 44
2900 -0.15804029098830752 1.7513970835084263 3.5183724142886144 168 163 160 0.695713569752619 15 1949 13 3363 16 1215 3 1125 2 819 4 1604 8 2014 1 2179 5 1680 6 1874 12 902 14 2211 17 1802 44 2077 38 2524 49 1854 48 1904 50 2417 51 2459 51 4790 19 1947 18 2650
2086 -0.72978373501737415 0.41911390325113917 4.6217091209668482 131 122 115 1.781718582959779 9 2623 13 893 16 2618 11 2897 5 3352
3776 -0.76414507245435759 -1.6703632525030576 6.4479374329099617 219 208 214 1.5677942972578445 15 10 16 189 10 1129 1 784 3 2152
3409 -1.2823387096868766 -2.6097618248013252 7.1201817729646173 175 166 159 1.0424591527615128 9 2240 15 4153 13 4871 16 2297 10 2958
3930 2.0095770061599203 -1.6935747405853427 6.2612408972801132 235 225 223 0.88049132456416179 13 5045 16 1214 7 4596 10 2077 11 2475
4821 -0.876227887825479 1.2018297351229339 4.0023946446779055 241 234 226 1.1797140976252949 13 2878 15 2326 16 6223 7 4330 7 4338 11 2185
2091 0.78596930908907914 0.52585534615521978 4.472524329357217 255 252 250 0.63166009536763434 15 790 13 911 16 1021 7 1802 10 1260 9 573 11 914 3 2470 2 1454 4 1117 8 352 8 2415 5 1157 9 2634 6 883 12 802 14 1058 17 587 44 3679 40 1606 46 1748 42 1322 38 1295 49 1593 48 3969 50 1644
3423 -1.9093457092290798 -2.4148645216244908 6.9695351981315508 164 155 148 1.3507452744337074 9 2259 15 4179 13 4899 16 5469 11 1542 2 3195 4 1250 8 1096 5 1190 44 3185 40 1405 46 1595 42 3403 38 134 51 402 41 3656
2908 0.22468664575242239 1.7736195898882423 3.5277005341434426 244 239 236 0.19085526736644845 15 1960 13 3391 10 3926
2093 -0.98880786074877058 0.54172590560799494 4.5860595578220735 183 174 167 1.4509459972256136 15 791 13 916 11 913 5 3370
2094 1.0950108939821974 0.76790282923026976 4.2555119292430375 180 170 171 0.56578469482371008 15 4794 13 928 16 1443 7 1836 11 3014 3 1404 4 389 4 3251 8 2873 1 3340
2976 -1.0578794272131153 1.9532988277701553 3.4075897884170092 161 157 148 0.26771543028076378 15 2907 13 3580 7 3601
2097 0.9346463899446571 0.81659214608932829 4.2005435209256055 215 205 204 1.1931381221131869 15 473 13 937 16 518 7 991 10 55 11 895 2 696 8 616 6 2480
3792 -0.29115957395644937 1.9400628625668672 3.4154506352959677 200 195 192 1.7410303973046031 15 2911 16 350 10 4021 3 262 7 4735 2 2465 5 306 5 2579
4010 -1.1234523323446712 2.026714511846293 3.3502272430155262 155 157 146 1.0574714317461116 9 1846 16 1838 7 3674 10 874 11 3433 3 1724 2 2414 4 2753 8 776 1 610 6 4201 14 5030
2107 0.83452407905205994 1.1383343470097229 3.748698887551511 222 212 211 1.0232919316556379 15 4969 13 973
3503 0.87225459350341983 -0.84214535912097788 5.6013464184299542 224 226 219 0.62090070142564802 15 4382 13 5197 16 5841 10 2111
2108 1.0907791148248482 1.1516333274071444 3.9558057669052769 172 162 163 2.0819791981906617 9 1552 15 2322 13 974 10 689 11 2348 3 3757 4 3380 8 3002 10 3667
2988 0.2058235316318687 1.9570491033226471 3.3422705148439427 222 217 214 1.1361249194569252 9 1805 15 2048 13 3609 16 3954 7 801 10 1611 3 697 2 881 4 2504 40 4698
2110 0.7691904397646977 1.217977926683494 3.9065103796052387 223 218 215 0.70688630431089861 9 865 15 2335 13 979 7 445 3 843 2 742 4 3417 8 924 5 751 6 1272 12 893 14 957
3800 1.0207422404571269 -3.4914915980134782 7.787335364857201 229 226 217 1.5758652121735233 9 2149 13 458 15 1268 16 411 10 1938 3 1979 11 2284
2113 -1.4251721965763868 1.3136057770135676 3.9514675125408085 234 225 218 0.33687454433257841 9 1587 15 865 13 994 7 943 10 1346 11 830 3 1475 2 1923 4 1483 8 1249 1 1241 5 2074 12 2361 14 3626 17 2262 40 831 46 814 38 2207 42 2270 49 4396 50 3739 41 1081 19 3992 45 881 47 920 43 1144 37 948 39 684 36 927
4082 -1.0229752589292851 -2.7776263823848564 7.1945233157019084 227 220 212 0.65579957351763218 15 5179 16 2281 9 2214 11 998
3575 -1.7416552171085529 -0.0020560596256810576 5.012680074391537 184 175 168 1.5611771594708681 9 2553 13 5454 5 1400
2117 0.20608086107530701 1.4438871292981579 3.7529906051256399 239 235 236 0.85388837188265188 9 1615 13 1015 7 1967 10 1425 3 1521 2 1540 4 2134 8 1805 1 2257 6 1819 12 2776 14 5268 17 2731 46 4362 44 1679 38 2411 50 2373 51 2404 51 2423 41 1963 19 2833 45 1830 47 3391 43 3703 18 2751
3569 0.69755460929065571 -0.092022140600527949 4.9654212114261256 215 214 208 0.69533816409864124 9 1226 7 396 11 952 2 629 4 1087 8 580 5 2854 44 886 40 230 42 712 38 1187 49 3769 48 1277
2118 0.10024799996478793 1.4492212082561324 3.752069255087028 237 235 222 0.79097709279693218 15 885 13 1016 16 570 7 1968 11 1363 3 1520 2 762 4 658 5 1601 6 467 12 1799 14 998 17 1244 44 1678 40 521 46 480 41 454 19 265
3064 -1.1701488476188078 2.1662139750889007 3.2119152468990007 187 177 175 0.24309506545962237 15 3180 13 3871 16 4179 7 3856 11 3657
13765 1.6216853333079957 1.4966612314219556 3.6481213057828654 215 207 204 1.0520095110581194 38 2650 49 1949 48 2048 50 2824 51 2840
2122 -1.1680558682398099 1.5325552387187724 3.7554437695566194 209 206 197 0.85628567430106695 9 1658 13 1036 16 1633 7 1997 10 1447 11 1897 3 1528 2 4161 4 1548 1 2340 5 1554 6 3035 12 2466 14 3764 40 1768 44 4032 46 2014 42 4599 38 2296 48 4022 41 791 45 2026 47 2092
2123 -1.0646261349530555 1.6060407425279852 3.692447076580931 211 208 199 0.5687159833434513 15 665 13 1058 7 896 10 780 3 3427 2 2024 4 1003 1 679 8 477 5 1572 40 1799 46 2032 41 2120
3583 0.73583731539684549 0.051801358028415588 4.87187793230368 223 219 218 1.5525672046058434 9 1447 13 5474 16 2567 7 401 3 919 4 2684 8 2771 1 1979 5 3355 7 3210 6 913
2124 -0.96453163342933124 1.6240477094031847 3.6674504785487283 113 110 101 0.62469008757065214 9 795 13 1061 7 689 15 2624 11 771 3 1565 2 1544 4 1576 8 1934 1 949 5 2258 6 1742 12 1719 14 2064 11 4030 17 2415 44 1699 40 1807 46 774 42 2435 38 1651 49 2610 48 4569 50 3886 41 2114 19 2470 45 2024 47 3970 18 2402 21 4936
3577 -1.5064022074542878 0.010971931030027934 5.0312370015894814 111 102 95 0.13851482173516891 15 4565 13 5459 16 2646 10 2188
2126 0.76971410672813512 1.6589449143667827 3.5483715913409037 197 192 189 0.66680515371465776 15 2658 13 1075 16 3653 7 2060 7 4630 10 3861 4 2255 8 1332
2128 0.44426833348184963 1.6805569212923295 3.5362731487410928 133 128 125 1.1610853310347407 9 1693 13 1089 16 1708 7 866 11 1958 3 3281 2 823 4 692 8 1959 1 2389 5 812
5571 0.57999821106956639 1.4142561244520109 3.7545083066996141 120 119 115 0.24778332306600601 13 3071 7 4188 2 2057
3008 -0.33774846224628374 2.0244064572771672 3.3117119198687273 227 222 219 0.7374811305760951 15 5003 13 3686 16 4031 7 1405 10 1629 11 1215 2 1749 4 4048 8 3226 1 3138
3366 1.7020206637094772 -3.2372598539241548 7.5011190376742523 251 242 235 0.38360758018740077 9 4040 15 4058 13 4754 16 5235 10 2857 3 1993
2132 0.69574918641481731 1.7345152145078542 3.4874608649474323 212 207 203 1.1323672579990396 9 1713 13 1101 10 1527 3 2682 2 1682 4 2302 8 1999 5 2621 44 4295 46 1160 38 4382 49 2911 48 2907 50 2647 50 2661
3012 -0.75906799992725338 2.0293394130779343 3.3233797393401061 156 152 143 1.5340846471150962 9 2964 13 3693 10 578 16 1288 11 671 3 691 2 868 8 773 1 611 46 697 41 3644
3016 0.24467049927588846 2.0290701292166968 3.2735591199754905 205 200 197 0.44030728469814079 9 3958 13 3705 11 3436 8 3180
2137 -1.282361960016019 1.8111571710734975 3.548133695230447 151 142 135 0.55567908048450843 9 744 13 1113 16 3785 7 849 11 740 3 754 2 793 4 2433 8 731 1 651 5 1604 12 2554 44 804 40 937 42 2506 38 707 48 2443
3883 0.77257268876387575 -0.43897155178450664 5.23964850904646 224 225 220 1.3623291661964487 13 5315 15 4457 16 955 11 1639 3 1518 2 3583 4 3064 40 716
2861 -1.451052337839208 1.6042506085635007 3.7628985243886102 189 190 180 1.2659487606343045 15 1887 13 3213 7 4099 3 3436
3535 1.0635231546272865 -0.45595801305662598 5.2420991524457028 254 252 247 0.16755747505064381 15 1653 13 5303 16 2494 7 3081 11 2665
2140 -1.4770435896199434 -1.4780927780932656 6.2611490314316045 231 222 215 1.0868314812382356 15 1606 13 1118 16 2406 7 2924 10 2888 1 1102 5 3076
3529 0.91901166312304239 -0.49041789483652615 5.2505542305134378 218 217 213 0.12170796258223442 15 4435 13 5291
6094 0.31424530842875087 -5.7885403003900908 9.6991971616583648 184 183 173 2.0397604221569519 15 3745 13 1641 16 2133 10 1017 15 1455 16 1941 11 13 4 71
3372 -0.83913262125660959 1.7899323886895739 3.5388524693740093 169 169 159 1.2463180181406208 9 3742 13 4769 7 2100 11 2002 3 2679 3 3329 2 3361 4 2386
2144 0.88123128797753192 1.827624517635229 3.4103393321443991 223 213 212 0.8486780117691185 9 438 13 1133 16 618 7 830 11 584 3 724 4 560 8 508 5 553 6 687 12 4304 14 791 17 981 44 2137 42 1787 38 785 49 1997 19 4404 18 1007 21 2110 29 2377
2145 -1.4430839156034512 1.8648546939062527 3.5066081502729767 195 186 179 0.50165558212193639 15 1994 13 1134 2 1611 5 2335 6 4359 12 2541 14 3508 44 4253 40 4667 46 2156 41 2251 45 2177 47 2243 43 2443 37 2394
3986 0.98262415366755185 1.5067463051815624 3.6511733215848974 190 180 181 1.7293604254888566 15 1861 16 1640 7 2003 13 1034 10 3790 3 794 2 796 1 1261 5 2515
2147 0.16033816381169516 1.8637744673037444 3.402922655486726 176 171 168 0.48103940812028562 15 561 13 1139 16 1247 4 4060
3479 -1.7070042683308693 -1.2039344314243681 5.952686326257794 216 213 204 0.9467373650034665 15 5154 13 5126 16 926 7 2958 9 2388 10 2147 3 2171 4 3019 5 3090
2148 0.79320180271020435 1.8601171551044826 3.390470500135184 248 242 242 0.77147741099826483 15 994 13 1142 16 1248 7 612 10 1575 9 1759 11 728 3 716 2 877 4 1008 8 738 1 1338 5 1810 12 1039 6 87 14 672 17 969 44 2148 42 1790 38 1811 49 1998 48 3034 49 4668 50 830 51 3611 19 1015 18 997 21 2082 29 2343 23 2354
2149 -0.9038050814810612 1.9317347955317274 3.4174062002013366 224 220 211 0.93040202147758289 9 3555 15 2031 13 1150 16 1797 7 618 10 847 11 705 3 1684 2 1668 2 2345 4 2520 8 1427 8 2167 1 1369 5 2465 12 3494 6 1829 14 2125 17 2510 44 4336 40 2573 42 2630 38 2522 49 1844 48 2592 50 2341 51 1731 19 1842
3473 0.98279915412629026 -1.3275205828119914 5.9440617743771806 232 222 223 1.7381689806704435 15 4298 13 5105 11 2525 2 3419 4 1292 1 1098
2150 -1.360677087770451 1.957816097710291 3.4223549258196195 140 131 124 0.55115973814161556 15 548 13 1153 7 527 10 4059 3 417 2 829 5 774 6 1783 12 1738 14 2072 17 2413 44 834 40 974 46 684 42 1698 48 1403 41 952 45 777 47 826 43 2440 37 905
2968 -0.69299939651181441 1.9266582688507077 3.4062816045707809 225 222 213 0.722882605185029 9 1797 13 3556 7 1178 10 1796 11 1170 11 4428 3 2830 2 2371 4 2500 5 2492 6 4510 12 2778 40 2565
2153 -1.2808200107896659 2.0095774864077618 3.3705863620410152 145 136 129 0.53456044771932554 15 1025 13 1168 16 1833 7 791 10 871 3 705 2 1680 5 1670 6 1807 44 2130 40 1983 46 1283 42 2631 41 1238
2154 -0.44150691451518415 2.0084899012409823 3.3279557421876542 232 227 221 0.60474753178915608 15 1027 13 1171 16 640 7 534 10 575 11 515 3 426 2 873 4 776 8 766 1 1400 5 2591 6 759 12 929 14 963 17 814 44 862 40 2642 46 552 42 1764 38 1772 49 1918 48 1942 50 1782 51 2366 41 2187 19 848 45 2073 47 926 43 1189 37 5206 18 2593
3994 0.099867947676827662 1.6385386951858303 3.5985281341769038 183 178 175 0.60166808093652702 9 1680 16 1683 11 1366 3 3347 4 2263 8 1327
2155 0.59147398973292364 1.9960493999505018 3.2886119912370138 231 226 223 0.4891326763575673 15 1030 13 1173 16 1284 7 784 10 873 11 686 3 678 2 909 4 1681 8 935 5 885 12 1044 14 798 17 960 40 964 46 751 44 2309 42 2905 38 1844 49 1408 48 2066 50 2803 51 2810 19 2187 18 4060 21 3070
3487 1.6115005336118655 -1.0395006625791827 5.6911510348075973 225 215 214 2.0464180424834426 9 2394 13 5154 16 5794 10 2083 11 2565
2156 -0.61382584316480759 2.025895609049337 3.3213395784808193 216 212 203 0.30577682540980994 9 461 13 1176 16 1289 7 780 11 591 3 690 4 531 8 436 1 618
2972 -0.0038284262205335556 1.923750072935327 3.3505682425497838 180 176 164 0.37187722606732643 9 1786 15 2899 13 3567 4 1650
2157 0.7744587978909474 2.0193408873172212 3.2625839380039703 132 128 127 0.76446398271827032 9 701 15 3013 13 1180 16 1851 16 5304 7 774 11 674 3 985 2 927 4 767 8 770 1 623 5 906 6 1119 12 1073 14 635 17 2094 44 1734 42 1854 38 1866 49 2051 48 2099 50 2876 51 1925 19 1034
3481 -1.5755940971700968 -1.138981033745152 6.0507360955050347 221 218 209 0.51517473336693553 15 4342 13 5141 16 5772 10 3147 11 1696
3040 0.52755681491238759 2.0863353966665792 3.2100495399560014 219 214 211 1.4395955775148537 9 3034 13 3791 10 4174 15 3092 11 1399 3 3097 2 2748 4 788 4 2590 8 936 1 3083 5 3740
2161 0.20456655643196214 2.124340817188874 3.1996575808862282 210 200 199 0.45842074482277873 9 3459 13 1204 16 1320 7 751 10 914 11 643 3 648 2 935 4 805 8 3103 1 1433 5 1856 6 2053 12 1026 14 839 17 1973 44 2392 40 2007 46 2154 42 4144 49 4615 48 3030 50 1858 51 2783 19 2090 18 2886
3559 -1.5908585883951796 -0.20080514552976142 5.1838694474997586 236 227 220 0.21507134283813648 15 4520 13 5392 7 3151 11 2736 2 3564
2164 -0.30205060269666306 2.1888258192543883 3.1714345426309838 207 202 199 1.2249580473713162 15 1083 13 1221 16 1349 7 4076 13 3910 11 609 11 3705 3 629 4 1801 8 822
3553 0.59263485523255677 -0.30048089258701582 5.2115079592693023 210 208 219 1.4402376666814807 13 5367 10 3294 16 2517 2 3614 8 2739 5 3291 44 1504
2166 0.19665680871207528 2.1938924381256486 3.132830900826709 172 162 161 0.69932434408840904 9 1926 13 1229 16 671 7 1310 11 1001 3 618 2 965 4 3544 8 1547 1 2550 5 911 40 1031
2172 0.32343953279042054 2.3117348412067837 3.0414650513989083 202 201 199 0.62734826019319101 15 1152 13 1279 16 1987 4 885 9 594 8 880 1 842 5 1949 6 2147 44 1845 40 2117 42 4071 38 1930 48 4059 49 2115 50 2911 51 2935
3052 0.68317016111222373 2.1228221193924384 3.2210620895978743 207 202 198 1.6838373897421448 9 3085 13 3822 2 2817
3561 0.81141712162538293 -0.19445208130357791 5.0509333139091961 251 252 246 0.48479095680885753 15 4511 13 5394 16 6047 10 3322
2175 1.1743282379694369 1.2071153710984392 3.8905598017033389 207 197 198 0.85534304162680619 9 1558 13 1284 16 3256 7 4318 4 3400
6126 -0.69111652197847373 2.227690121785431 3.1615638770780845 213 205 204 1.1639605847838592 15 3274 7 3972 10 4409 15 2171 9 3271 13 2451 16 4267 7 3965 11 3771 11 4490 3 1059 4 1831 8 1574 1 1005 5 3576 12 2968 14 4683 46 3709 40 2874 38 2763 49 2954
2833 1.039744788689364 1.4983611295019956 3.6593878676063434 251 241 242 0.22452344744345362 9 1975 13 3143 16 3495
2176 0.43876058389942235 1.5592447038451112 3.6180245839404583 214 209 206 1.326459474859927 9 3961 13 1290 10 995 15 5041 2 2155 5 2450
3350 0.91110779935289266 -3.4759619002378885 7.695983869971692 247 243 234 0.39328370857120454 15 4035 13 4707 16 5146 10 1934
3859 0.98123206252480832 -4.0907112844607312 8.2296110336174895 223 219 210 0.31725084071121157 15 1316 16 826 7 2544
2179 -1.259813356295779 2.1471773203869193 3.2626709381684642 213 204 197 1.0503786080539774 15 1062 13 1296 16 1890 7 3806 15 5004 3 1001 2 1747 5 2554 44 2184 40 2044 46 2267 41 1295 45 2261 47 2289 43 2455 37 4740
5392 0.92189199796898347 -0.67402083324859841 5.4965895778148015 248 247 242 1.8165656656115696 15 4404 7 3044 10 3221 11 967 3 937 2 3534 2 4223
13578 1.55480011425095 1.549067420388019 3.5824487409019881 198 188 186 1.4748166543674126 38 224 49 287 48 126 50 254 51 268
2181 -0.0051002740305293491 -6.7243491663923649 10.242407241954814 136 138 127 0.35967857135841613 9 1989 13 1301 15 3592
3348 -2.7368539890858852 -3.5673355595941394 7.8859873432382539 199 200 189 2.1736532961336232 15 5191 13 4702 7 1148 3 1941 9 2155 2 1075 2 3046 9 2165 4 2819 8 2566 5 2845 5 2851 40 4638
2841 0.18178267788463295 1.5406335758736522 3.6823555599039195 221 216 212 0.23232196834157937 9 3970 13 3170 11 4108
2184 -2.2880322255482066 -6.5772178519901736 10.328522880827377 141 143 132 0.8339114018485706 15 1491 13 1306 9 1298 7 1476 11 1069 3 3309 2 2918 4 2704 8 2454 40 3180 44 1141
3358 1.0192920732346491 1.6828893695148375 3.52183601539289 249 239 240 0.38928255452724558 9 3875 13 4733 7 3353 11 3974 4 2272 8 1344 1 1304 5 1766
2186 -0.3930589445253897 -6.4662780277897038 10.265177225994083 163 165 154 0.8148900795350178 9 164 15 1299 13 1309
2188 2.7004135902696547 -6.29478069218165 9.999979993893465 175 166 159 1.1094627536714987 15 1294 13 1312 16 4448 9 2005 7 2308 11 2105 3 1818
2913 -0.81765984388352431 1.7931315590897241 3.533295945578268 197 199 188 1.0057977027703133 9 3755 13 3408 7 4651 11 4534 3 3582 2 2219 8 2057 1 3441 5 1637 6 1801 42 444 44 215 48 240
3430 -1.6927697898575642 -2.4055092478379407 7.093158498210431 218 209 202 1.8329653673052277 15 4187 13 4931 11 2392 2 1256 5 2981
3428 -2.2303943492385137 -2.3122004830561949 6.7886317245403056 194 185 178 1.9248467378080958 15 4183 13 4917 9 2263 16 2320 10 2985 13 4930 16 5484 3 1231 3 1281 4 2910 5 1226 44 3180 40 3580 46 1598 7 1602 42 3384
2921 -0.87872826561421136 1.8379573474769795 3.5565310151102958 146 143 134 1.5138111318019714 15 2788 13 3434 5 1645
2202 -0.52558296279576844 -5.5381120059360569 9.6213547743321257 181 174 166 0.90810594522749954 15 1327 13 1336 16 2023 10 2531 2 2972
2204 -1.8100070365203675 -5.3713028733937582 9.509611533730423 164 166 155 1.8311039153490773 9 2058 15 3830 13 1339 16 4649 7 2424 10 2540 16 4630 5 4
2206 -1.995511754881673 -5.0235846079125404 9.1199992403917918 190 192 181 0.53332970997710138 9 1016 15 1303 13 1343 7 4551 3 568 8 1028 1 1061
3436 1.9688497445207602 -2.1711650241912253 6.6607581694090801 255 248 246 0.53952272905458432 15 4195 13 4962 16 2340 7 2817 4 2906
2207 1.485287480613559 -4.9385967673207123 8.8944409063598417 213 204 197 0.46166561097513742 15 1236 13 1344 9 2055 16 710 7 1517 3 1867 2 3000
2865 -1.168441739281556 1.6065297369873093 3.6476630631079159 205 205 195 1.8405376432498188 15 5043 13 3227 16 3592 11 1925 3 3447 4 2274 8 1920
2208 2.149144959204361 -4.9809614096307833 9.0112717165640674 214 205 198 1.049311404774802 15 1305 13 1345 16 712 7 1519 3 1878
3024 -1.2380187467020305 2.0797800611082931 3.3437557408937981 186 177 170 1.5821583894920883 15 3045 13 3731 16 6213 10 4137 5 2506 11 1234 3 1749 6 4182 44 2251 42 2690
3382 1.3473535321953141 -3.077764118312436 7.4770231321596459 185 176 169 1.4741959020193347 15 3511 13 4794 16 5315 9 2199 7 2697 11 1517 3 2022 4 2855 8 2592
2869 -0.6333514551273135 1.624399824450959 3.6441276440804709 215 215 205 0.96765899801799782 9 3903 13 3238 7 4132 11 4025 3 3395 2 2088 8 1932 1 3367 5 753 1 941 6 4311 12 2631
2212 2.000149912781978 -4.3751312716683062 8.3524127045498133 215 206 199 0.92689189430231234 15 3901 13 1356 16 821 7 2486 10 469
2213 -2.1340544031509192 -4.4849907960342552 8.6518709006292323 204 206 195 1.130215745802756 9 1320 15 3911 13 1357 16 4419 7 1540 10 2647 11 1057 3 563 2 1026 4 2771 8 2529 1 1781 40 3303 44 1201 46 2653
3390 -1.0606899507171297 -2.9415469631815849 7.3866948620731581 185 181 172 1.2785677713252261 9 4043 13 4811 15 348 3 2013 2 99 8 539 46 1045 40 644
2217 -0.16456651414711246 -3.8367798374353388 7.7147885098247269 209 209 199 0.56894498411927763 15 1396 13 1367 16 2163 10 1909
3899 -0.64920974660331754 0.6030491107239776 4.4489942709637322 138 129 123 1.3331374141176628 15 4724 16 1024 10 1264 11 904 9 2659 4 3236
2218 -1.382063821781411 -3.9913027044565745 8.2560944489593275 125 127 116 0.75182570913074764 9 2125 15 1503 13 1370 16 829 7 2565 10 1043 11 1050 4 2796
2220 -1.5930264621675236 -4.0070031233106382 8.3583627868980326 202 204 193 0.75826060222452052 15 1262 13 1376 16 831 10 1046
3545 -1.5722789937510242 -0.33915873037817107 5.2945485133652115 103 94 87 0.10835175325824471 15 4483 13 5343 16 5982 7 3122
2222 -1.0366977384731817 -3.9199206793932482 8.3066705586178458 210 210 200 0.73163882182438955 15 1512 13 1380 16 408
3388 -1.4689469959767902 -2.9360767361215236 7.323062336866573 155 151 142 1.3563333353179019 15 4101 13 4807 16 5314 7 2710 11 2328 3 1213 2 3122 4 2867
2223 -1.2865602225553303 -3.7219187684084205 8.129849088156778 203 201 191 1.9622820982441236 15 1520 13 1382 16 843 7 2618 10 2764 2 15 8 2571
2817 0.2528984735941342 1.459379123639333 3.7761538066986264 218 214 215 0.80707226525080422 15 1839 13 3101 16 1604
2225 -1.3656458231052442 -3.1975420179380705 7.5577729947915522 226 223 214 0.78972872031058849 9 2185 15 1532 13 1388 16 2021 7 2675 10 4023 11 1509 3 1983 46 2779 40 3452
3843 -0.42948640597906768 -4.7155300068754711 9.1149813089243246 200 200 190 1.0858338833818084 13 1360 15 1494 16 718
13568 -0.66684276023445554 -1.6239832840383015 6.3023660763330449 127 117 134 1.6370833179901778 42 4 49 212 51 3554 50 3400
2227 -2.726394727017007 -3.1906208590590572 7.745501158484065 196 187 180 0.70353548457418091 15 4085 13 1393 7 2699 11 1516
2229 0.80551412834596747 -2.9624569426549447 7.3298976450229407 241 234 224 0.42134886207549671 15 1538 13 1396 16 2187 10 1073 4 2856
3332 -2.5288985706699987 -3.9261953943745063 8.3253867159569737 213 216 205 0.51738788537116021 15 3998 13 4653 16 5022
2232 -1.8522468923759485 -2.9805293192953872 7.5045019729618367 211 207 198 1.6778136056118604 15 1545 13 1400 16 859 7 2717 16 2268 10 1072 10 2895 1 232
3342 2.1814584627632212 -3.5468708048603284 7.6683561075804096 225 216 209 0.15662449364157779 15 4012 13 4689 7 2611
2233 -0.8401271247672969 -2.8387530899364348 7.3022387074269686 199 191 190 0.40084617168257319 15 1282 13 1403
2234 -2.3464135921294536 -2.8265055235250824 7.3447895594509802 219 210 203 0.59869600841789461 9 2227 15 1283 13 1404 16 863 7 1132 11 1526 3 2026 2 1226 4 2880 1 1845 5 2914 44 1392 40 1390 42 3351
2239 1.7779496757033697 -2.4387134143656959 6.7679956864628501 252 246 239 0.71196450916854381 15 1556 13 1412 16 878 7 2774 10 1091 11 2366 1 1085
2901 -1.4716996844081636 1.7633127331421099 3.6168188426215973 134 125 118 0.87982735555003366 15 2719 13 3364 7 3395 2 2105 5 1583 44 4182 40 2451
2244 -2.3392596527419531 -2.3156225007842091 6.9395125738470469 221 212 205 1.2539261721323638 9 2279 15 687 13 1425 7 4586 10 2002 2 3210 3 2074 8 2618 40 1415 44 1267 42 3404 38 1382
3412 -1.2461335016522559 -2.5669521019955051 7.0610152599518976 213 204 197 0.024558590439205732 15 4155 13 4878
2247 1.0922725298307217 -2.3222663739169778 6.6412766264855883 189 180 173 1.5880341023941849 15 1559 13 1444 16 5485
3630 -1.4607026063000961 0.42533600580890601 4.6565165542830274 207 198 191 1.4060801715041165 15 1741 13 5629 16 2809 11 2896 5 1166
2905 -0.37896101738234433 1.7680726254945349 3.5160188023628098 235 230 227 1.5852385853999948 9 1727 15 44 13 3382 16 3758 7 2092 10 40 11 3521 2 46 2 2240 8 34 1 1324 5 2449 6 59 14 4852
3422 -0.95346415164820741 -2.432456805894045 6.9400314730818042 248 239 232 0.52074355219572832 15 411 13 4898 4 3995
3638 1.1496840845190544 0.47772535827996415 4.4495007442627159 244 234 235 1.0822901444725435 15 4679 13 5661 16 2845 3 906 11 1703 1 2017
2977 -0.92760510029789478 1.9532427761862987 3.4035561081598344 242 238 229 0.4576888407783703 15 2910 13 3581 7 1189 11 1180 3 2841 2 4345 4 1687 46 3478 41 3615
4003 -0.35548979552583759 1.7660239781647156 3.5177747342602204 180 175 169 0.49817384672813148 9 3789 16 1731 10 3925 3 3337 2 2244 4 2357 8 2025
2981 -0.24826806348164016 1.9570022008780146 3.3582404860232766 174 169 166 0.54845489376452106 15 2932 13 3600 11 3331 3 2895 2 1718 8 1437 1 1373 5 1747
2260 -1.3350877648877448 -6.0009994790084082 9.7115894183675433 191 193 182 1.4963632009026873 9 54 15 3690 13 1478
3637 0.77155399965788485 0.46846716368318275 4.4798528385452761 196 192 189 1.606452845817179 15 4672 13 5653 10 3454
3646 -0.64727858597702215 0.53804345147296184 4.5295930039816117 112 102 100 0.14396438284500826 15 4700 13 5687 16 2860 10 2250 4 3957
2985 0.64437500760120314 1.9442419283961043 3.322326867114521 235 230 227 1.5024215977612771 15 2934 13 3605 16 3948 7 3624 10 4058 3 2944 2 2599 4 2476 4 4049 3 2940 8 2171 6 3960 12 4292 17 4117
3502 1.1484880038593583 -0.84195799808882321 5.564886624625343 253 253 244 0.18985541132392642 15 4380 13 5194 16 5839 7 3013 10 3189
4671 -1.8617809754266457 -2.4030833928439064 6.9786717728802792 228 219 212 1.0224935341528425 15 681 16 5470 2 3200
2265 -1.5920021783423124 -4.7134395336900301 8.8590900074105967 210 212 201 1.6752713585775547 15 5203 13 1494 16 812 16 4778 9 2083 7 2469 10 2610 11 2189 3 1872 3 1880 4 2762 8 2516
2271 1.1649548867571784 -3.8883832549915951 8.0664746013973776 233 224 217 0.15093331097880799 15 3972 13 1501 16 5025
3645 1.3807236788598836 0.52035481194507793 4.482859737485537 145 135 136 0.31446470459832632 15 4697 13 5685 16 2861 10 2252
3500 1.2618727383763237 -0.87229397550208365 5.6497636923075376 239 229 227 0.74735545645441459 15 4378 13 5192 16 2462 7 3009 3 2238 2 3510
