# 3D point list with one line of data per point:
#   POINT3D_ID, X, Y, Z, R, G, B, ERROR, TRACK[] as (IMAGE_ID, POINT2D_IDX)
# Number of points: 347, mean track length: 6.173006308257226
13105 1.1024628193352271 2.4693203215641666 2.7093063232533465 255 252 244 0.36480980252856504 47 2075 45 2086 49 2294 46 4530 50 2117 51 2164
12448 1.1696879594993359 2.0615864888158937 3.0269144157805821 248 238 236 0.79081668266040539 9 1190 47 1887 45 3798 49 2110 50 1963 51 4730
13264 0.74094297356547834 -0.98636722380146524 5.5156702158002702 246 241 238 0.24032981822861993 47 3595 45 3372 49 3553 51 3657
13622 -0.049154565480037209 -6.5254037824111961 10.065602756176476 164 156 153 1.3398408061911637 45 2941 47 1313 49 933 45 1290
13109 -0.36077177569527114 2.841608836179486 2.4663444958219811 116 110 96 0.47381130689983014 12 2245 47 4597 45 2096 49 4176 46 4244
13783 -0.16967186135594919 -3.2268696120458937 7.3107921685643618 204 196 193 0.5935155503668671 45 3120 49 2422 51 1292
12452 -0.48239352712114991 2.5421279895857145 2.7270688495791315 157 148 143 1.445413010241005 40 1917 47 1947 45 1923 45 3874 49 3861 46 3110 50 2782
13268 -2.2547941452713953 0.015815130723895919 4.8941448078197114 114 110 99 0.5739200425030917 40 3475 45 3407 51 3602
12453 0.32140613522997097 2.3800553921546728 2.8070738456889832 213 204 199 0.49022737230008478 40 982 47 1951 45 870 50 871 46 870 51 943
16183 -1.5385068792364767 1.9157088259145589 3.3008849795146507 190 182 171 0.84211868471651641 43 525 39 775 38 555
12454 1.0961569197181336 2.2209716465627154 2.9115981071669372 244 234 232 0.56128712357207189 9 1137 47 1952 45 880 49 766 46 923 51 2326
13620 1.0247632837648586 2.4540192021414282 2.7022457436933678 168 159 150 1.5964423734033459 45 948 49 914 50 4260 45 4139 51 4333
16342 -2.1766291152653943 1.4213723024718201 3.7449660383299692 253 248 244 0.44136318060893759 43 2150 39 2123 38 2269 48 1008 42 648 37 575 36 505 35 454
12455 -0.78498718306253146 2.6123406831962193 2.6917097813280582 172 169 157 0.68857967161204048 40 1936 47 1961 46 3048
13113 1.2141166019083394 2.4699337824680399 2.7587052426156258 194 185 178 1.0855142250376355 47 4406 45 2100 50 2147 51 2193
15835 -6.2738050618248771 -0.58254084577654308 5.4212960477014045 231 227 218 0.98134368102492409 13 1285 19 399
12456 1.0729140924510039 2.2570285049195538 2.9112547232196979 230 220 218 0.48804327958907495 9 1128 47 1967 45 1971
13272 1.3492526008624257 -0.66544463102901619 5.1915311674665157 221 216 212 1.5444330742280861 40 1474 47 1429 45 3430 49 3630
13630 -0.38987626488997296 -2.760595420412439 7.1092606563848779 201 198 189 0.93077088640268091 45 68 49 992 50 1481 51 1304
12457 -0.45248410121263205 2.5778129989441361 2.7166798516901944 175 166 159 0.46021957036060462 40 1937 47 1970 49 2114 46 2095 50 1879
14139 -5.2663289879233073 -3.8650905886159164 8.1670918718546197 184 180 169 0.40979168236554758 47 3187 46 391
12458 0.64830712704729132 2.445569419361866 2.7388878136401793 207 197 195 0.32404400881850987 40 1923 47 2012 45 1039
15672 -0.36541259052980407 -1.525673085070177 6.0162450456546912 235 233 221 0.2168585921691896 44 2934 43 2848 39 1603
12459 0.90415603730539351 2.4007882894321031 2.7711819040628733 241 231 229 0.45914349610388921 40 4500 47 2014 45 922 49 2227 46 4358 50 2047 51 4200
13117 0.1585015249246545 2.7290535236386257 2.5530307760726716 159 156 146 0.51158744585325489 47 2110 45 2106 49 852 46 2265 50 2024 51 2058
13791 -2.3636317199531258 -1.023594642417029 5.5823982230689566 190 186 175 0.57056455904468539 45 1413 49 2486 50 96
12460 0.66700188890645584 2.4589746740025133 2.7329694091431889 123 113 111 0.41072383380132205 40 1929 47 2019 45 2030 49 2224 46 944 50 2020 51 1203
13276 0.3553525048005563 0.036775734520574484 4.6588530950306106 160 156 145 1.6133243813743896 40 178 45 3484 49 3719
13628 0.27547543315654716 -3.3347201997394764 7.4166823897232801 205 195 193 0.36536809027766765 45 1097 47 640 49 971
12463 -0.33512791548375187 2.6790542404545374 2.6386804541490516 154 150 138 1.1278715687153926 40 2799 47 2029 45 4012 46 4112 12 2166
13057 -0.39294184498601958 2.0485635312216224 3.1105005307449014 176 166 164 0.36724705198151142 47 1759 45 1768 46 2751
12464 0.91450623809299403 2.4301592070862839 2.7518459545420795 253 246 239 0.31542987672817674 40 1926 47 2031 45 2046 49 2241 46 1086 50 2058 51 2096
13574 -0.16861321951120897 2.7431064738532451 2.5103486250836315 159 159 147 1.2499988035169605 47 2205 49 583 46 2209
12465 -0.0045282809365189327 2.6245471495968893 2.6387292994680149 139 136 127 0.45464765820256919 9 3649 40 3690 47 2034 46 4191 50 4479
12466 0.56108762448254523 2.5193129986705904 2.6880108417641861 241 233 221 1.8951171686251898 40 1052 47 2040 45 4081 49 4143 46 4318 50 3688 51 4160
13061 -0.41914017062444264 2.351046135229685 2.9048686790323477 161 151 149 1.2431249497736605 40 947 45 1862 46 2030 51 2690
12468 0.89170710380948992 2.4823659463249093 2.7080700225343626 84 75 70 0.3360837825576285 40 3647 47 2048 45 947 49 2269 46 2306 50 2081 51 2115
16135 -1.1162097742374082 2.0677092952157565 3.1539005478307121 223 220 211 1.5078233136718415 43 787 39 549 38 3620 48 1111
12470 0.49131711890289687 2.5684484753888643 2.63495925284764 140 131 124 1.8120004953282731 40 2777 47 2053 45 942 46 309 45 158 50 565 51 2059
13572 1.3311001862036482 2.210068332268968 2.9338548026622124 216 206 204 0.55401516739299594 45 894 49 573 46 553 50 517 51 563
12471 -0.13801077928483771 2.6996642034446694 2.5928661603090726 131 127 115 1.2763882122601262 9 3669 40 2050 47 2057 45 935 12 3987 49 2220 50 4625
12472 0.71786679716631152 2.5308163496280822 2.6754448799321215 70 61 52 0.33037250692039949 40 1981 47 2059 45 2062 49 2267 46 2291 50 3726 51 2099
14091 0.28456581259413044 2.0033318128617497 3.1207307054496867 185 180 176 2.1754926200942988 15 2041 3 1053 16 3590 11 3596 7 854 10 1177 5 700 8 880 4 1655 41 2542 3 1794 14 3936 11 3609 3 3564 10 3296 10 3327 4 2475 1 3226 6 1792 12 4673 13 3879 17 3925 5 2886 6 3542 45 2728 47 1783 49 1972 46 2936 50 2653 19 3746
12474 0.67870389181835589 2.5444598655075668 2.6654801068233409 81 72 63 0.33095856309387123 40 1993 47 2063 45 2065 49 2266 46 2288 50 4157 51 4230
15624 -0.42016813677480369 0.4601370862540351 3.1402224521049007 127 120 136 1.7836452746736366 47 603 43 2059 39 3145
12475 0.70579320699799275 2.5449448063383207 2.6657187196417693 236 227 220 0.3414599518033557 40 1997 47 2066 45 2071 49 2274 46 2296 50 2060 51 2100
13069 1.2327149380263915 2.1026299358706346 2.9660198898150014 222 212 210 1.1971800402232844 47 1905 45 1918 49 3944 46 3831 50 1997
12476 0.59107765717676619 2.58167498568814 2.6260563500776919 175 167 156 1.1927347627085667 40 1080 47 2070 45 2080 49 2275 46 2287 50 2056 51 2092
15618 -1.3085210326408998 0.91910571120165696 4.1056221204028045 233 228 224 0.44681753255424839 44 4549 43 1931 39 1850 38 4757 48 5258 42 4969 37 2594 36 1898
12477 0.17304288695418296 2.6697131732917323 2.5935287367785498 100 93 85 0.48077021476015569 40 1098 47 2082 45 2067 49 2246 46 2240 50 4029 51 2043
12479 -0.46341651415289314 2.8321712554451026 2.4908124416638957 205 197 186 0.40955816282645596 9 1216 47 2098 45 956 12 1108 49 2233 46 2193
13654 1.1973644456757182 0.92082112489543932 4.0015697126161767 232 223 216 1.3702973452807505 45 652 49 1201 51 812 50 2327
12481 0.027576271831199543 2.4184940555718453 2.8091057264742623 200 190 189 0.55592602307890282 9 2125 47 2187 45 3869 46 2109 51 2888
14163 1.2609928468409151 2.2549323367792322 2.8659937922021803 213 203 200 0.66663289192627628 49 576 46 556 50 977 51 1030
12482 0.75819864429074157 2.1946715936170893 2.9235714997708433 240 231 226 0.43557444540589402 40 2456 47 2196 45 3823
13141 0.38155660383486745 2.7730877002141869 2.5069601387328841 112 108 97 0.41679351537111031 47 3036 45 2171 46 4517 50 4250 51 4325
12484 0.39642815798564812 2.6213081895584285 2.6328903008226034 123 115 112 1.2663552175302202 40 2813 47 2206 45 4149 46 4357 49 94 50 89 50 4093 51 4175
16215 -1.7878331688467 0.15589894358937009 4.7313889041661588 210 205 201 0.33973649110562132 43 1846 39 999 38 1445
12486 0.7572396856075434 0.8431622543446583 4.1241010189362095 147 140 132 0.83302904147214252 9 2994 47 2222 45 4247 46 4032
14884 -0.59905063771151656 -0.6925935343572166 5.1906030472130951 209 199 198 0.68021501129661088 46 3549 50 1490 51 712
12487 0.72939076522936186 0.89389655639640708 3.9992376737944144 153 146 138 1.1304954650252419 40 4549 47 2225 45 2200 46 4040 50 3885 51 4005
13861 -4.2001384413634648 -2.0193666957522365 6.5913048067571944 163 159 148 1.9164767869532895 47 193 49 3277 46 407
13652 1.5624183029068939 0.41506372570361372 4.2874005227526997 139 135 124 1.6675035922042964 44 956 49 1161
12488 1.1186447972836207 0.94928187832119981 3.8931849399563587 224 215 208 2.0573120262756013 40 3796 47 2278 46 2456 50 2305
13870 -3.1402505351079615 -1.619279225941471 6.2277870229427146 196 192 181 1.4131896005400704 47 4503 49 3330 46 1155
13145 -0.40574055811994353 2.9294551532754922 2.3991364594006508 117 112 100 1.3723598574677858 47 3035 45 2197 49 2302 46 2245
13662 0.026105253941824703 1.7472393244574085 3.5291956541052452 144 141 131 1.4793849796499534 49 1306 46 2692 51 2500
12490 -1.5688916516182156 1.5243565210266725 3.622669741208004 149 140 135 0.45792609761786701 40 3948 47 2295 45 2219
14888 -2.4031218063064297 0.72246957312937909 3.9798474315920114 158 154 143 1.0501915363897851 46 3627 50 1507
14171 1.0687959525010498 1.7414093962184407 3.3071714503456886 175 175 167 0.21396179486164138 49 711 46 636 50 617
12491 0.90022746066077819 1.0454091389591611 3.8495609430838815 198 189 182 1.6034876516219527 9 4345 47 2302 45 2251 49 4531 46 1820 46 2488 50 4545 51 4151
15913 0.015481753257315401 0.51219754195950962 4.3520956179519006 113 112 94 0.38292128827849603 13 1979 19 1821 18 1771
15704 -0.72382963079748497 -0.063653316246461519 4.8354101644785779 173 172 168 1.6129191107354013 44 960 43 3141 39 3219
15906 -2.7149927962801916 1.6756007610372134 3.6737407125381942 228 220 209 0.61726858362721904 17 3703 19 1659 18 3776
13149 0.51343722118390256 1.0998959310053575 3.8396502372604551 196 193 188 1.632585151460987 47 411 45 2235 49 518 50 1680
15698 -0.41522208919480086 -0.28177854438306493 5.0438162530127624 220 210 209 1.2758026883998876 44 3179 43 3072 39 423 44 977 38 1774 48 2371
12493 0.9940938414668461 1.1175952864404588 3.8018107714180398 144 135 127 0.038942593482078111 40 3858 47 2337
14883 -0.83924302813164031 -1.8658622916134391 6.3333013294465665 193 187 184 0.15982233333382637 46 1175 50 1475 51 692
12495 0.32735515905625301 1.3308063317783865 3.6737209063446183 125 119 119 0.13563785782162635 40 3924 47 2377 49 2608 46 4873
13869 -3.7114398469199466 -1.455040498086936 6.1128926288994982 135 131 120 0.31674739083440151 47 1298 49 3329 46 3334 51 3425
13660 1.2884940634753856 1.3067277843867515 3.6522946199899007 149 139 137 0.68254387147966955 45 712 47 829 49 1287 46 734 50 637 51 851
13217 -0.062299078570184241 -3.8957405924818165 7.735536019422856 222 213 205 1.5235835785815866 47 1293 45 3051 49 951
12496 1.1220534360329713 1.1906655830693751 3.7413668280563495 113 104 97 0.34493565150432381 40 3893 47 2387 45 2343 49 2651 46 4841 50 1769 51 1770
12497 -1.2365150237081579 1.664536510183291 3.5025086577287374 159 150 140 1.884882612987367 40 4058 47 2388 45 2302
14903 0.88993884078079877 0.3441438273526074 4.3907109482362685 216 214 202 0.24701654172566812 45 1523 50 1605 51 3880
13734 -0.45019001787009311 2.2039901635040819 2.9473533502366807 141 131 129 0.72625870642589563 45 779 49 1959 46 1987 51 2589
12499 -1.1547040489701994 1.7698766923124352 3.4012074535834604 194 184 182 0.61022571298733896 40 783 47 2447 45 2360 46 4345 50 3862
13221 0.48126385992159659 -3.8699667295684579 7.7616259646713397 159 149 148 0.280905526549725 47 3246 45 3072 49 3230
12500 1.1003300345785092 1.3658630965971614 3.6058623575178128 108 98 96 0.55098560781478056 40 3984 47 2469 45 2447 49 2736 13 2375 50 2526 51 2569 19 2206 18 2075 20 2196 27 2510 25 2700 31 5164 26 2666 30 5668 32 5283
16295 -0.35610687817706277 0.49488831375932346 4.3936282287046939 206 197 188 0.44423518112186394 43 1835 39 1735 38 1825 48 1265 42 1118 37 954
12502 0.4055489344845592 1.5457964844965268 3.5653254038656015 175 166 157 0.97463129841997742 9 4145 47 2496 46 715 50 4531
14900 -0.86090113610651775 0.90897943566124739 4.0719889391204021 174 166 153 0.90126042598542833 46 4692 50 1589 51 3834
13732 1.2362722082165283 1.6513954144731422 3.3392355196035464 173 163 161 1.4855784326477874 45 2639 49 1941 51 2790
12503 0.57956381430280113 1.5589140515589575 3.5002685467885315 183 174 167 1.4752943896187538 40 4108 47 2522 49 2756 46 2716 50 2489
12504 -0.58064647877023168 1.8814503165517984 3.2618674960595637 167 158 154 1.2296034682518342 40 2085 47 2587 50 2346 51 2376
13886 -0.20712067719347416 -1.1644073509526018 5.6845267729258735 198 191 183 0.77053502389811102 45 345 49 3477
13225 0.25721389604520428 -3.7201384173350234 7.7732985008548177 183 173 173 0.80772664070809963 47 3269 45 3096 49 958
12506 0.097746364780378819 1.7425022073583842 3.3657495653720462 169 166 161 1.6455313360893988 40 2052 47 2592 45 2500
14904 1.0746134819339856 0.68353481323724474 4.1057798288931719 222 213 206 0.57183601565886943 46 1336 49 505 50 1655 51 1349
14251 0.40358235362121958 -0.32844594652975007 5.0711681991379969 171 162 155 0.44318818093431722 49 1100 46 1253 50 1280
12508 -0.77331498348689032 1.9647131694897646 3.2192365460234522 144 136 130 0.52867398878159866 40 4313 47 2620 45 1719
15922 -0.45096042803014791 2.4364655070059227 2.8217183405055675 233 229 220 0.18631878411598532 13 881 19 1991 18 2637
13229 0.75133419017333825 -3.0041145784625196 6.8877780812726908 182 177 173 1.056251051627807 47 3319 45 3139 49 3284
12510 -0.82523420797678604 2.0836233972824281 3.0787609446483812 100 93 85 1.3872825463922656 9 4127 40 2228 47 2695
12511 -0.59226502238761158 2.0872329966533187 3.1099353005016148 216 206 204 0.50353067446678035 9 770 40 2252 47 2739 46 2731 50 2444 51 2490
13885 0.49171979311088387 -1.4444866409226802 5.8871281979764767 129 124 121 0.80073119954590621 45 1131 49 3469 51 420
13740 1.4949900047593727 1.8625497996193823 3.1906903396460184 238 228 226 0.5130088702451101 45 1856 49 2062 46 2145 50 2294 51 1982
12512 0.11200540880406637 1.9780971455766636 3.1364346603238178 215 213 201 1.0132795981844904 9 4520 40 2210 47 2762 49 2912 50 4711
13686 -1.0221701064257234 1.1563007615446483 3.8404889864305134 176 168 156 1.0722406763893164 45 3675 49 1503 46 1722 50 1598 51 3856
12513 -0.25354293517914023 2.1024435705274152 3.0862249542998228 160 150 148 0.31739627598552445 40 2284 47 2808 49 4741 46 2835
14195 0.78223266476670783 2.3323393472747411 2.803132512223923 190 180 178 0.47341251536919082 49 2169 46 910 50 4000 51 4092
12514 -1.2375055560853003 2.3732169947400772 2.9207691018184967 150 142 131 1.7043409432763701 40 1785 47 2863 41 1094
13173 1.258586853940862 1.5896794455293837 3.3972526678602204 184 174 172 0.20921319759903576 47 2646 45 2611 51 4753
12516 0.14740525523197229 2.1283889797996487 2.9615828876729142 180 171 166 0.70095372291739799 9 694 40 2335 47 2896
16247 -1.5692428242317313 2.2183690281011121 3.0541016151945852 153 151 139 0.15723931149457673 43 1356 39 1267 38 729 48 1403
12518 0.66051465588826064 2.6167315249311462 2.6125901455946527 102 99 87 0.36270013787601163 40 2829 47 2937 45 4208 49 4256 46 4474 50 4233 51 4302
13684 0.47620960185440364 0.33368872069374905 4.4557078993599273 193 189 180 0.83507841699101082 45 1195 49 1492 46 3811 50 440 51 439
12519 0.88354773024235922 2.5704412072907399 2.6445415621380182 230 222 211 1.9581979368269338 40 1087 47 2938 45 2121 47 2104 49 4276 49 4277 46 3996 50 2112 50 3785 46 2339 51 2159 51 2161
13177 -0.33741830278579588 2.0249320267313089 3.0880033846313948 161 151 149 0.98213934437379435 40 855 45 2631 49 2862 51 2525
12520 -0.45468121626970637 2.8474882242990458 2.484890435336478 168 160 149 0.44977635308718744 9 1226 47 2944 45 2192 12 4552 46 4219
12521 -0.54991414773078739 2.8822189377184464 2.4546407994084216 127 119 108 0.42820953495125863 9 3683 47 2958 45 3615
14203 0.57177644271320605 2.6101475469411106 2.6301713311173058 126 117 110 0.60049411391863117 49 601 46 980 50 976 51 561
12522 0.36046151978254826 -16.279012037856365 17.378878738413739 76 78 74 1.2976676984087909 44 4603 47 3078 45 2874
12523 -9.4154835700139294 -10.252070474806271 13.529675275172155 159 135 124 1.4265121692181715 9 1103 47 3093 6 1260 45 2895 49 2364 13 1325 46 372 50 1306 51 1505
13181 -0.64520335618144276 2.1627335180079208 3.0516711268571122 206 196 194 0.16493337252753626 12 2892 40 2306 45 2682
15730 -0.77878550538731173 1.0892045399086805 3.92669514863486 156 153 144 0.28577455401319607 41 4271 43 3525 39 2893 38 3240 48 3874 42 2135 37 4787 36 1336
12525 0.077204201904253048 -0.5758485667362726 1.8947062418708336 116 104 150 1.0620199116487898 47 3105 50 4657
13692 0.047234118627463975 -1.7848721486702706 6.2334921808121653 204 200 191 0.32135478835320563 45 3263 49 1558 50 3386 51 3540
12527 -0.097353490304559046 -0.36849097455919738 1.7821247880941495 117 103 190 1.2616015634276994 41 606 47 3112
13121 1.1942124462304886 2.4922598879458078 2.6695808274507615 209 200 193 1.4635265031033178 47 2095 45 2113 49 4288 46 4605 45 2124 50 2152 51 4471
13638 0.33521354254717423 -1.5387424022905756 6.0114070914371682 199 194 188 0.80667964068445319 47 3517 49 1033 46 3499 50 647 51 1516
12529 -4.9445986368020929 -5.2438738621553549 9.2848202582478638 165 161 150 0.48293219136527349 40 1147 47 3132 45 2949
13125 0.64970091509997641 2.6306358371513614 2.604245127891561 192 188 177 0.4043999353705548 47 2948 45 2123 46 4485 50 4242 51 2132
12532 -3.9529136190229885 -4.5390948605605139 8.5263074265500318 208 204 193 0.41796977220469644 40 2957 47 3156 45 2973
13646 1.0221200677938176 -0.65035441350884882 5.2634357846419713 189 183 176 1.1006469464695654 45 1159 49 1090 51 3716
12537 -3.5244399176737269 -4.0595875941219104 8.1104798065084456 166 162 151 0.16170106085537242 40 2981 47 3183 45 4362
15688 -0.066760949293444116 -0.53635746114149052 5.2230273354517625 227 222 219 0.46370300982630314 44 987 43 2986 39 3057 38 1741
12539 -4.4550236908165193 -3.4731010968922331 7.6497451923584396 170 166 155 1.1500232077460661 9 2328 47 3207
13133 0.72351462173894565 2.6442947682011515 2.5885482410501548 124 118 106 0.13920955854396472 47 2126 45 2142 46 2427 50 2111
12540 -3.8147218783676755 -4.0414978314776331 8.4209154516027205 215 211 200 0.82360018438361482 40 3005 47 3209 45 1029 47 1215
15682 -0.60924864625177966 -1.14405807341071 5.7140844702335487 214 209 206 0.25237075924875579 44 3009 43 2915 39 2999 38 1925
12541 -4.0617314202504957 -3.7145886317976404 7.9694790523790733 202 198 187 2.046268299951111 9 1361 47 3212 45 1296 40 3008 49 2389 46 227
13644 -2.6713866252242702 0.30722541630581318 4.6781334628009485 107 103 92 0.39436018305685688 47 1444 49 1085 46 1402
12543 -2.3310815860760745 -3.1276793391916371 7.061987452201997 210 206 195 0.10382872137792366 40 3035 47 3239
12544 -3.0626703153193677 -3.458152911829012 7.8269182653190121 208 204 193 1.0991794242259725 9 2395 47 3250 45 3057
12976 0.010326502451790325 -1.8627951589755354 6.2569954692544894 189 184 177 0.62392461252549869 47 3461 45 1117 49 435 46 559
12545 -3.9268245142268121 -2.6485073858531125 6.8062911635160832 179 175 164 0.53950257540271684 40 3086 47 3258
15549 -0.4781018627358361 1.039668986790123 3.9554715038549753 177 165 167 0.82660670378013867 44 1827 43 1156 39 978 38 3394 48 3821 42 3811
12546 0.86883531012975657 -3.4937905330053871 7.5156062205525096 165 163 151 0.65522114269893228 40 1344 47 3297 49 3272
13495 -1.2537063955036518 1.7965458534140879 3.3558883550780152 155 146 139 1.5330050061462621 4 1598 6 2246 9 1732 12 1706 12 2497 13 3912 17 2368 45 2359 40 4165 15 2687 16 3325 14 1710 11 3356 7 4436 5 3056 8 2081 49 1759
12548 1.0051232273293764 -3.4179726994319992 7.4856572863196504 239 230 221 1.3003068920245748 40 3063 47 3309 45 137
12980 0.96531565485714377 -0.78032596154857836 5.3373742285746655 221 217 208 0.72664909127524058 47 690 45 1154 49 2587 51 3685
12549 0.34500362890823727 -3.1020075396242142 7.1441424282197472 227 220 210 0.31380350127450762 40 46 47 3317
12550 -3.8270205768098773 -2.3569584974860542 6.842868399767597 175 171 160 1.1080972594329648 9 2434 40 3136 47 3327 49 3259
12551 -3.2133748279952856 -2.5025294833765188 6.9868129817635749 180 176 165 0.46844923947508565 40 3126 47 3331 45 3131
15547 -0.095711763632889316 1.5868375569153166 3.4842727617429108 238 233 229 0.6061331526177075 44 821 43 1108 39 936
12552 1.281518936070571 -3.1582574037667537 7.2203628469306 236 232 229 0.54146293434589765 40 3080 47 3337 45 3159
12984 -2.1236642651922493 0.45427714707591466 4.3751561831758323 165 161 150 0.78117025177949062 12 3750 45 1168 49 1095
12553 -3.292478627289543 -2.2844532882516257 6.7379227785587723 204 200 189 1.3324587121161757 40 3145 47 3340 45 1288 49 975
12555 1.0932486555630136 -2.96485694394012 7.0888959237578764 223 215 213 0.52265340571125762 40 1174 47 3356 45 1104 49 993
12558 1.1848030121564552 -2.3428161766134803 6.4235896059796671 228 225 220 1.5886644077097491 40 3149 47 3410 45 3207 49 4701
12928 1.2191424962673338 2.3648047329587474 2.8038286836075241 213 204 195 1.304325142490256 47 4480 45 934 49 839 46 4455 50 999
12561 0.7204123546601463 -1.9862961277007836 5.9779872984962692 216 212 209 1.5853260761511854 40 1402 47 3427 45 3220 49 431
12562 -2.5832357613619745 -1.2809963906309736 5.9864779474786394 200 196 185 0.92389899757688099 40 1430 47 3477 49 3380 46 3386
13954 1.1938998680054482 2.4295080492277616 2.7584679976085873 188 179 175 1.7018729189737569 45 4145 49 4221 50 4328 51 4385
12563 -1.6139640040473591 -1.420170617891171 5.9865240357773475 204 202 190 0.30933852693374808 40 3253 47 3483 45 71
13447 0.28044717417133297 2.5193812674041065 2.7031541379115507 232 228 217 1.2051589079648857 9 1154 12 652 13 719 17 483 45 906 40 1046 44 3810 47 1049 49 778 46 905 50 900 51 967
12564 -1.8554862479464553 -1.3366002558613297 5.8768196468505671 152 148 137 1.6080113400086893 9 598 47 3488 49 2482
12932 1.2328217828764216 2.4204660640364195 2.7493507382560489 245 236 229 2.2774466110391973 47 538 45 953 49 4237 45 2081 46 594 46 2345 50 654 50 2129 51 1071 51 2172
12565 -3.2536263446733478 -1.1340113911248486 5.9935528965829894 161 157 146 1.2419954219996805 40 4413 47 3499 49 3376
13441 -0.56392067263953771 2.4579126061224792 2.8051869221310377 220 210 205 1.2735921110990425 4 142 1 246 6 523 9 527 12 580 17 852 47 548 45 837 40 2582 41 307 44 227 47 4018 49 631 46 2037 50 1843 43 312 19 863 39 564 18 1803
12566 -1.7766142079324334 -1.2525171841042129 5.9040093287258362 159 155 144 1.4783381741080921 40 3269 47 3509 45 3265
16006 -1.6252702414973581 1.9006334515900902 3.3176178183898206 234 225 218 0.48927205861193729 13 3732 19 4010 18 3982
12567 -2.0142925651224544 -1.0966218235869338 5.806761977944916 186 182 171 0.6452451810953499 40 4411 47 3523 49 1024
12568 0.47054948858106699 -1.2000944613983366 5.5877489270449594 249 242 234 1.5645442909411733 40 140 47 3540 45 3327 49 3486 47 673 50 3455 46 4727 51 4866
12936 0.0040831002998842339 2.7368826769081611 2.5507127904490692 109 110 96 0.73349347587429226 47 1102 45 964 49 837 46 4300 50 1999 51 2036
12569 -1.6685571053268242 -0.91552978958273767 5.6934357208785142 195 188 178 1.276504670190205 40 3314 47 3542 45 1425
13962 1.2418870239240105 2.4480578225181637 2.7200726106336512 159 150 141 0.75894431283275177 45 4185 49 4268 51 4440
12571 -2.3380527048893081 -0.61865257190989087 5.2733947216587707 204 200 189 1.4340847497399163 9 1489 40 3325 47 3549 49 2513 46 3472
13455 -1.4250667144564382 1.5716870446240452 3.5805233271403698 152 148 140 2.1980227241459693 12 2406 13 3673 17 1587 45 1608 14 1151 15 2509 11 4163 8 727 6 705 6 2128 40 1651 41 865 44 3687 5 3553 41 4550 47 1584 43 4555 19 1166 39 4267 18 767 20 1728
12572 1.2081715551770171 -1.3548437925033494 5.8020034156151938 251 247 242 0.28740519162289918 40 3276 47 3555 45 3342 49 2539
12940 1.1562883386159624 2.4743671032832388 2.6928857499370316 191 182 175 0.6470298781911481 47 1092 45 972 49 2309 46 1011 50 2288 51 1083
12573 0.73735205081721777 -1.1387429418772854 5.5202895011576327 187 179 177 2.1832453469994619 40 51 47 3557 45 3344 49 3506 51 3632 49 3518
13449 0.30824379740621766 2.1997703710071268 2.973777692659016 242 236 233 0.91954078243051307 15 1071 16 3854 14 4157 11 1279 5 1048 8 1872 2 1518 1 583 6 1883 9 2087 12 2102 13 1579 45 3742 40 2416 41 2773 44 2158 46 3099 50 2822 51 2825
12574 0.22839968622922838 -1.0127053133894195 5.5611601964234518 178 174 163 0.77224478754392956 9 1526 47 3579 45 3356 50 3472
12575 -1.7521043774453247 -0.47102464251220211 5.1680061182980062 180 176 165 0.47917665477172361 9 2755 47 3597 46 62
12576 1.0479562485541087 -0.99068645939945066 5.4885196767283082 186 183 178 0.92532897681450466 40 1452 47 3600 49 3563
12579 -1.8409916154579176 -0.26081469615180741 5.0649279417950357 181 179 166 0.36944961994617304 9 2797 47 3634 49 454 46 1591 50 415 51 3590
15309 -0.85270633862073664 -1.3032322109808974 5.6150469013059885 200 195 192 1.0298316877113032 46 434 51 3520
13906 0.66662381872044629 -0.15307374976027066 4.826561096717092 185 180 174 1.1765388329893047 45 3476 49 3697 50 4579 51 4852
12580 1.1270401121451143 -0.76437732237319145 5.2898193834821718 221 216 212 0.73400007719464266 40 596 47 3640 45 3409 49 3601
15302 -0.034847812379253849 2.7061418501472323 2.5801154783684441 152 148 139 0.2506791915747098 45 4122 50 3969 51 3333
13399 0.079173594614758189 2.3410824470938971 2.8979794321207621 143 134 127 1.2716715944271983 47 4019 45 4408 50 2855
14279 -1.2934210670549606 -3.8356855715596758 7.7209488043972563 205 202 195 1.6655109796395622 45 3032 49 947 46 1479 50 1372 51 1319
12884 1.1029877415051792 2.4235486352987468 2.7810613792576673 104 101 92 1.5216927737483648 47 535 45 533 49 846 46 577 50 4261 49 4189 51 4334
12582 -1.3976700712940777 -0.14760129249801715 4.9845313386164278 161 151 149 1.3929743642397996 9 2840 47 3661 49 3585
14272 -1.5527447088121664 -4.4069990374403067 8.5079015049294409 166 159 153 0.90722761083138947 47 185 49 393 46 1432 50 1319 51 3318
13393 0.54086507153260677 2.4909801991834577 2.7124520647033399 223 214 205 0.60398526523370288 40 1941 45 4361 49 4111 46 4289 50 4037 51 2044
15958 -0.28446148397559312 1.5509208619221915 3.5529007203086009 209 202 194 1.0887996442604342 13 5034 19 2636 18 4642
12583 0.83369302573523518 -0.41141828551860415 5.0363080400764542 245 240 237 0.7431613184508985 40 3413 47 3681 45 3449 49 3658 46 3673 50 3579 51 3727
15297 -5.7268946242693612 -3.3016621055808466 7.4410749291150902 220 216 205 0.23585305923575994 49 2381 51 3255
12584 0.75665479290565874 -0.39228830117758084 5.0673509451436622 251 246 250 0.42857555494512717 40 3424 47 3689 45 3454 49 3661 46 3675 50 3575
15306 -4.9159650285238694 -1.691445919935981 6.7257268471554612 231 227 216 1.3978081591090348 46 200 50 3256 51 3400
12585 -2.268794777838365 0.3979937134052744 4.551138868702516 217 213 202 0.64206238141193639 40 3558 47 3707 46 3614
16331 -2.2464495561391034 1.1417856373680735 3.9695748145383143 125 120 116 0.2420646632494822 43 2067 39 2047 38 864 48 1035 42 637 37 574 36 515 35 996
12888 1.2847916668987884 1.983327560290788 3.101141120589944 251 244 239 0.28669952894359602 47 620 45 567 49 1452 46 876 50 589 51 632
12586 1.0247100937124485 -0.25110238045756711 4.9362585473051723 186 176 174 0.42985959182829986 40 3453 47 3709 45 1176 49 1483 51 3789
12589 1.1922329720024674 -0.10928212123659356 4.7456620017083635 220 213 203 1.7850672635388734 40 3490 47 3732 45 3504 45 3513 49 3751
14287 0.84563274144968303 1.442694030278264 3.4876118266971683 210 200 197 0.94975100159878356 49 4763 46 1514 50 2488 51 1787 51 1789
12590 0.74773610913928712 2.4647839798032409 2.7269808385614303 231 221 219 0.60995142033167105 40 1114 47 3746 45 2043 49 4148 46 2258 50 2037 51 4185
14280 0.50226325819586426 0.96777587698482681 3.9915955810211941 154 152 140 1.1303542938647009 49 1692 46 1482 50 217 51 229
13401 -0.43313869086160822 1.7705735453216247 3.3897064933745988 151 144 134 1.4499328165385312 40 4200 47 2533 45 4413
12591 -2.255569397168006 0.84969016467795 4.0532260101521276 160 156 145 1.3844040760805441 9 2935 47 3782
12960 0.3662156718573103 2.7614440395283317 2.5207691479593399 232 228 217 0.47291187548874569 47 488 45 1009 46 993 50 987 51 1047
12595 -0.78654494051385815 0.7203447149163692 4.1357538433506091 144 135 128 0.75873357913490158 40 1542 47 3825 49 3819
15325 1.8244778113342957 1.9925754941562561 3.1370142689477798 148 140 129 0.92205036407109719 49 4012 50 4201 51 4267
13986 1.2608961254904598 0.96113384437003713 3.9141054581852894 115 106 99 0.086126248582934606 45 2259 49 4538 51 4797
12597 -1.4996345729854204 0.95220430096396735 4.0187823042391875 139 129 127 1.005488405151594 40 4375 47 3856 49 3826 46 4697
14295 -0.66515072660558894 1.5837812950103272 3.4985395270065105 135 128 110 0.023376452537310317 49 1748 46 1560
12964 0.61856592845990377 2.7262803541228413 2.5286392339213593 191 184 176 0.43066708251491947 47 3042 45 1016 46 2360 50 2120
12598 0.39735235460736379 0.63260973003612531 4.2287256188127547 232 226 226 1.0233431391557466 9 1655 40 4378 47 3870 6 33 12 1667 13 3746 17 1650 46 3911 51 3891 19 1886
14288 -4.2130128420982196 -2.2658958172486181 6.5729332003666379 170 166 155 0.82577506917448362 47 3301 46 1518
13473 -0.4117176314099576 1.8801180442719676 3.253622519387779 214 210 204 1.4739691274171696 8 1638 4 1006 2 1384 1 994 6 2456 9 1854 12 1821 17 2638 45 3216 3 3748 10 2009 8 2280 15 1975 14 2461 7 1553 10 4199 3 3745 4 2391 2 2060 41 3683 40 4274 44 2070 49 2773 46 2636 50 2383 51 2430 43 4542
12600 1.078232571081601 0.61975396982435127 4.1985450572765881 177 168 159 0.32890594911919308 40 3668 47 3892 46 1330
15322 0.36781821503253664 0.64474109303628724 4.1960511620580094 166 162 150 1.6483814439138151 45 3635 51 3884
12601 1.2541919761182538 0.58343406301509637 4.2190173833406668 254 251 240 0.47439661185613191 40 3663 47 3893 45 1321 49 4377 51 3989
16347 -2.1875426253138528 1.501382439863497 3.6806328664768868 244 239 235 0.40742414573203262 43 1010 39 2150 38 799 48 597 42 656 37 578 36 507
12968 0.40023186560312024 2.6760959863268723 2.5558974061274782 173 169 160 1.6261388289243097 47 2109 45 1041 49 4232 50 4151 46 4428 51 2090
12603 -0.43101359087348584 2.4001039069428156 2.8444664677019702 104 99 95 0.3145710582277097 9 3922 47 3968 49 2044
12972 0.55071428250227461 -3.88644333003095 7.8652364038445786 191 182 183 0.28832821012211185 47 1356 45 1092 49 2409
12605 -0.30367039091219417 2.4052130725631478 2.8466517919959156 181 176 172 1.4198696222099212 40 2549 47 4007 46 3035 50 2750
12606 0.86967669249881119 2.1801768768444583 2.9238696387722722 227 217 215 1.3791218875751767 9 3562 47 4024 49 4641 46 4133 46 4144
14296 -1.3488659567883179 -3.0479046076261929 7.4314645650309332 181 182 176 1.3455680270876211 47 20 46 1561 50 1385
13481 0.72996051237612369 0.73363005746995091 4.1391433365703287 175 172 170 1.9625036230147996 12 2515 13 1048 17 3296 45 3689 3 2658 16 5709 14 1411 7 1267 10 2953 15 1757 16 2515 14 1407 11 1810 7 2257 5 2495 8 3828 8 3839 4 3961 9 3277 12 1703 13 1544 17 2546 41 4792 40 3699 47 3903 45 3682 49 4378 46 3980 46 3989 50 3817 50 3827
12608 -0.081790836288993501 1.7453786805772293 3.3371726213182389 182 179 170 0.47705872626762086 40 4193 47 4058 49 4760
12609 -0.51063714224872148 2.5104509221517284 2.8121897732552252 215 206 201 1.0522877673432594 40 1890 47 4069 49 3947 46 3054
12611 -0.64839766501260765 2.5504966127246003 2.6443009499111003 191 182 175 2.3267545668997265 40 2662 47 4076 45 3834 45 3847 46 3050 50 2722
13044 0.98213447041617075 1.3075555563117796 3.6554437299666653 165 155 153 1.4611276572013199 12 1888 47 822 45 1666 49 1267 46 2657 50 2450 49 3300 51 2491 51 2507
12613 -0.56213517549135095 2.5542470895797931 2.7396628275675163 210 201 194 0.38080062824988248 40 1915 47 4099 49 2092 46 3082 50 2764
13553 -3.5181904134479609 -1.3592857349189462 6.0331315841880242 186 182 171 1.8392382821722499 45 1112 47 1386 49 424 51 3437
12614 -0.53579521015137932 2.5526686353549608 2.7298942180366947 133 124 117 0.42901877065245403 40 2674 47 4110 45 3865 46 3097
16118 -1.3641965240034193 1.0222250497908003 4.0268156845722363 191 181 179 0.46777021958487425 43 447 39 464 38 976
12615 -0.67724097009252349 2.5906710706195093 2.7273176218913391 172 163 154 1.5756752876891025 9 3304 47 4121 45 3871 46 3060 49 3142
15611 -0.7126717896159116 0.45667578077863008 4.3943982630023939 161 152 143 0.73451398352541397 44 4705 43 1840 39 1744 38 1057
12616 1.0767657253186644 2.2373502120412407 2.8957504913455074 157 147 145 0.75877502152170229 9 1235 47 4125 49 4029 51 4135
13048 0.89646320623386921 1.4755258455389222 3.5132351183203228 199 189 187 1.257563453751279 40 1359 45 1691 50 2533 51 2571
12617 0.97806024142697323 2.2638483855115088 2.8836616932976109 139 129 127 1.8995555176085839 40 2532 47 4132 45 884 49 2159 49 4022 46 2215 50 926 50 4543 51 988
12619 0.93827478273431353 2.296215069857916 2.8715946916411847 128 118 116 0.72755148580685425 9 3700 40 2563 47 4148
13567 1.0991496342049829 2.152523623929941 3.0156264077400921 175 166 159 0.96599711623053519 45 619 49 534 46 901
12620 -0.24515387614895812 2.5326211155504543 2.6948236018014162 195 187 176 0.9787033896389401 9 2126 40 1920 47 4150 49 3917 46 3164 51 2865
13052 0.78868879924546298 1.6274979572160311 3.4084785963885733 191 181 179 0.45867156667133141 47 2603 45 1734 50 2583 51 1828
12621 -0.9066136437875606 2.6876403144149341 2.6428303909098836 196 193 184 1.8039354658858049 9 3312 40 1974 47 4167
13561 0.15051953744320756 -0.26841323541531326 4.9918213254981856 206 198 187 0.45387877413567129 47 135 49 468 46 453 50 428 51 429
12622 0.56060316085275164 2.4119440842961022 2.7840419522251429 201 191 189 0.36844929302316415 40 2645 47 4187 45 3965
12992 -5.8348328374021543 -4.4857100569656323 8.5488275141501262 202 198 187 1.2455302745612846 12 3193 47 3144 45 1258 51 48
13350 0.99114966536818672 2.4648860689375285 2.7240366337672239 126 116 113 0.15695281475511924 47 4349 45 4138 46 4469 50 4252 51 2135
12625 0.20475571745160234 2.5149766622536136 2.7219873554185003 237 228 219 0.42172986894687287 9 2213 47 4222 45 3983 50 2995
14018 0.63178977360281852 1.4645464279568243 3.5583320162006942 213 210 205 1.7613412376507283 47 1657 45 1272 49 1821 3 2577 7 670 15 2439 16 3006 14 1129 5 357 8 4328 4 639 6 2356 12 917 9 1856 13 3857 40 4017 47 1653 46 1899 46 2665 50 1301 51 2485 19 3108 18 1945 20 2040 27 2330
12627 -0.8922606854567543 2.7390847545866315 2.5214084586235228 168 160 147 1.219351822690246 9 654 40 4487 47 4237
12837 0.80126701149062796 2.4589136213505256 2.7262468471856915 219 210 205 0.37883936238000171 40 261 45 319 50 560
13511 -1.7462395240727577 -0.8960591405984093 5.5379951016875433 110 101 123 2.0330889391056974 45 3305 47 4478 49 63 51 3
12628 0.8099201412857806 2.4162063968678011 2.7648757767881413 211 201 199 1.1339222704253746 40 2672 45 4039 46 949 51 2354
12996 -2.2873616211336274 -1.9199132482958792 6.3560596954950404 208 204 193 0.99522084439465253 12 1269 40 1409 45 1276
12629 0.65064810781780835 2.4611994060282631 2.7201684831107942 209 199 197 0.33531500641313761 40 2698 47 4262 45 2033
13505 -0.39627636919832593 0.039202279834092066 2.2341703691671855 86 82 115 1.1206482938261368 49 12 50 12 46 15
15911 -0.18095065050378784 0.3029624751475038 4.4666462486806289 178 179 165 0.26278791696304327 17 2217 19 1768
12630 -0.60904413643062105 2.7221375374293668 2.6574475337677703 153 144 135 0.96189883332926052 40 2810 47 4266 45 3994 49 3990
13348 1.1575730057377347 2.4172951514607908 2.7466355248161705 121 114 108 0.15475212513068687 47 4338 45 4133 49 2278 46 4497 50 4290 51 4358
16070 -0.79344380288360128 2.6544272128484012 2.6338225214242259 226 217 214 0.40871992634369081 43 96 39 89
15563 -1.8431019860807401 0.45902119448927409 4.5105990967774723 231 223 221 1.1446422869274535 44 1781 43 1346 39 1818 38 465
12632 0.42206796210518949 2.5285790960895733 2.7017467075816177 181 172 167 0.51960711518505287 9 3724 40 2736 47 4277 45 2037 49 2222 46 2222 50 4020 51 4106
13000 0.39926494513490185 -2.2741181219127466 6.5528079040879819 188 185 180 0.097316895491533287 47 3420 45 1314 49 2470
13358 0.30960547014496925 2.6685738866746282 2.5894220412288722 98 94 82 1.087351092199218 47 4425 45 4173 49 4194 46 4374 50 2032
12633 0.35979449510123329 2.5385928898917305 2.6681727543849343 160 150 148 1.2446247503928929 40 2740 47 4281 45 4047 49 2217 50 1994 51 4085
14026 -2.629546472707073 -0.090124839807112056 4.9367313749538884 128 121 113 1.7251784641826182 12 3634 13 3025 45 3379 40 4394 49 3538 40 3437 47 3633 50 4602
15400 -0.74380459762646134 2.2751292313700482 2.9734763538071203 150 140 138 1.7832152762874145 15 2166 3 1088 16 2448 14 1934 11 1318 7 1735 10 1314 5 1057 8 2676 4 1832 2 839 1 1487 6 3557 12 2933 40 2393 41 2877 44 2263 45 2747 49 2939 46 2808 49 2947 16 3932 11 1312 5 626 8 921 6 857 9 748 12 935 13 2236 47 2882 43 1267 39 3506 38 3560
12635 0.83326420473850205 2.4530157684742813 2.7484946706897677 198 189 184 0.44516080540872927 40 2702 47 4288 45 4083 49 4159
12845 -4.5016640244270825 -4.015648200622036 8.2997597536954633 206 202 191 1.211769104629798 47 334 45 372 49 389 51 67
13519 0.32819431207372923 -0.17209983243506918 2.2799593822114295 177 176 175 0.53990719110634577 44 158 49 112
12636 0.64824588525013072 2.4908091119255875 2.6988805386270105 187 178 175 0.77569306371327729 40 2726 47 4295 45 4082 51 4724
13004 -0.0079813614889293269 -4.0039604474265573 7.9163938661887192 211 202 193 1.7098772021124031 47 3227 45 1359 49 401
15394 0.070400304839448535 2.1002002606224104 3.0594215517792405 157 148 146 2.1535773108840925 15 1036 3 695 16 2348 14 1850 11 775 10 669 5 676 8 1782 4 781 2 775 1 619 6 1802 9 2001 12 3737 13 2385 17 1923 40 2307 41 1974 44 2118 47 1800 45 2757 49 2983 3 693 14 1297 11 1237 7 751 10 522 5 672 8 1792 4 783 1 614 9 3823 13 3854 17 1931 44 2119 40 2313 41 2667 47 2862 45 2768 46 2019 50 2654 43 2146 43 4475 19 2984 19 3014 18 2815 20 1915 27 3127 25 5080 31 4019 26 5637
13513 0.92697113352627891 2.4337267450023852 2.7291013698599325 202 194 183 0.88592731831652061 45 51 49 71 50 106 51 60
12638 -0.44213911193791311 2.7266933054526974 2.588659718260764 208 200 187 0.46778589152510658 9 3558 47 4316 45 2028
19603 -0.12445079806126984 -0.16956704163652767 2.6175512712770854 99 88 118 2.6570581016231234 42 3004 35 3118
12640 0.33416702118670427 2.5730868925839183 2.6582079937059766 143 134 129 0.46009328651090597 40 2774 47 4322 49 809 46 4282
12944 0.5460018722721337 2.6278937494187042 2.6264138449154046 252 244 237 1.5856565880221538 47 461 45 976 49 859 46 692 50 979 51 4237 50 4160
12641 -0.64422037373986063 2.7739050904767795 2.5597264811505709 121 112 103 1.4209894592714061 9 3521 47 4323 45 278 46 4076
15517 1.671621737040146 -0.59210455118748118 5.0524529753454672 210 207 200 2.3686322297162072 44 3007 43 671
12642 0.87788669977923517 2.4633456491849173 2.7248917843594564 118 109 105 0.4244130713180318 40 1041 47 4325 45 4102 49 4174 50 4185 51 4248
13970 0.20292082130864184 -0.36814472779507185 2.4223928739891041 189 189 191 0.88570562354267901 13 1717 49 4386
12643 -0.61179164757563953 2.770650970487047 2.5350669777484636 216 207 198 0.67686020787526535 9 3536 47 4332 46 4088
13463 -0.28221446716693033 1.536635520119001 3.5334208008046177 89 84 79 0.44826105744254652 12 2629 13 5041 45 2338 15 2484 16 3080 14 1599 11 4734 7 1422 10 1861 5 3528 8 1977 2 1806 1 2263 6 2252 40 4025 41 4493 44 4780 47 2413 49 4578 46 2471 43 4825 39 4612 38 2769 48 3890
12644 0.69468387208939975 2.5119408701181292 2.6412358259955329 170 161 154 1.7962342908953395 40 2749 47 4345
12948 -0.092624378748910857 2.8064507683648245 2.4919314549302265 141 138 126 0.3341293437702868 47 1125 45 985 49 4206 46 2252 50 2009
12645 0.23408197304410261 2.6285768389041557 2.6628620728650185 164 155 146 1.8763722200378674 40 2803 47 4348 45 939 49 817 46 4304 45 4123 50 922
13457 0.61503802866400126 1.7921080481346181 3.2846944244299592 198 193 188 0.74060144037373143 12 980 13 860 17 1974 45 1763 3 3856 16 1094 14 1207 7 997 10 1966 5 1627 8 1672 4 1584 2 1354 1 2409 6 1742 40 2089 44 4265 51 1853 19 972
12646 0.59647040958575381 2.5465564766993416 2.6675711215783888 133 124 115 0.31297875554432109 40 2775 47 4352 45 4119 49 4171 46 4370 50 4117 51 4190
16022 0.94108991746977155 1.8914397597310015 3.1232921778747915 178 169 164 0.98522487867762643 17 4278 19 4512 18 4267
12647 0.90784095405474585 2.4817107860592134 2.7011208633098343 242 233 228 0.46284885793022207 40 1963 47 4354 45 4295 49 4191 46 4444 51 4671
15515 -1.1422055972837735 -1.2086029979862061 5.804260799599942 226 219 213 0.27786618374687166 44 1014 43 661 39 1068
12648 -0.64121365202717995 2.8049860062808789 2.520882464312252 211 202 193 0.20268772591760978 9 3557 47 4362 45 4075
12952 -0.035677470460009943 2.8179181246586098 2.4871391638884912 199 192 182 0.38437240773433479 47 2135 45 990 49 2295 46 2268 50 2022
12649 0.45973410251922375 2.5849268201525599 2.6401429058253707 229 220 213 1.1310634206512011 40 2175 47 4366 49 588 45 534 46 550 46 4350 50 948 50 4090 51 1009
19685 -1.222657529582428 0.35410786604096273 4.5540277507450879 130 121 116 0.24350341271127027 36 2788 35 4303 34 3541
12650 0.7543031281351591 2.5298221157477543 2.6675555581120935 243 234 225 0.47709515452164292 40 1985 47 4374 45 4143
12651 0.77284051802826648 2.5321789850775236 2.6759253807937187 167 158 149 0.46863391113511382 40 1989 47 4375 45 4147 46 4442 50 2075 51 2110
13471 0.61494548815261207 2.0516374166885778 3.0742735055974237 207 200 195 1.9100641141372696 9 3793 12 4341 13 4178 45 2879 40 2320 47 2912
12652 -0.56513294994228569 2.8138647815128452 2.5178014045254855 72 63 54 0.36210636804653545 9 3921 47 4396 45 4099
12956 -0.23057016721253767 2.8794725950652449 2.3489085319973748 148 145 133 1.1568313399527446 47 1143 45 1000 49 4260 45 4256
12653 0.28054307349656127 2.6420340099785413 2.6125567676808958 234 228 216 0.81543898775289125 40 2040 47 4400 49 832 45 949 46 2251 50 933 51 1000
12654 0.87524067480533352 2.521495742133927 2.6721307176057123 237 228 219 0.67981760299103644 40 475 47 4404 49 4218 45 4322 46 4478 50 4251 51 4310
12655 0.36049606476668522 2.6364544927693649 2.6104697428376089 119 116 107 0.50607885329540703 40 1091 47 4408 45 2076 49 2263 46 2262 50 4088 51 4172
13024 -1.5233207717731614 0.13623514768562309 4.7175311836992053 158 149 139 1.3233322726784924 40 3508 45 1473 49 1092 46 3622 50 3502
12657 0.67784506699421188 2.5757641133671214 2.6410793392891545 193 185 174 0.65301444754008575 40 2019 47 4416 45 2087 49 2285 50 4200 51 2108
15597 -1.3513371630994775 -1.2765306004010124 5.8524663598988251 218 209 204 0.43619908058755619 44 3013 43 1733 39 1648
12658 -0.42427582832234828 2.808976526510953 2.5246864206107409 207 199 188 0.86439536635147629 9 3664 47 4428 45 4129 49 4137
14050 0.11516352009277621 2.318767217408805 2.8742115958730441 141 130 131 2.1641002677304377 15 2223 3 609 16 2488 14 1967 11 4070 7 964 3 613 16 1260 14 1376 7 1769 10 1126 4 865 4 1849 2 859 2 3339 1 544 1 985 6 1909 9 2104 12 1050 13 811 17 4042 45 1889 49 4223 40 4459 41 1053 44 2206 46 2090 50 2830 51 1344 19 2095
13543 1.235700267028421 1.9697649302366993 3.1101302197567224 163 153 151 0.90548580312027438 47 262 49 300 46 612 50 264
12660 0.74659476083362131 2.5782009417116676 2.6354674627627923 121 112 105 0.51360561755438128 40 2027 47 4439 49 2296 46 2316 50 4244 51 4306
13028 -1.7251724404925839 0.50869966451675908 4.423793341541808 158 148 146 0.7469077935444367 12 728 45 1493 50 1261
12663 1.211096313276282 -0.86490242164862585 5.324389870400605 237 235 223 1.8962096207645005 40 1459 47 4468 49 3581 45 1148
15595 -0.51197698933817504 0.096438353234483354 2.5881896510603477 225 215 213 0.75382142093114912 41 1356 43 1703
12664 0.7741781365997531 -0.91061625021028914 5.4059338058903394 166 160 160 0.54156277954296772 40 3322 47 4471 49 2566
13032 -1.4010264119691789 0.57296923889111961 4.4074887769435724 135 125 123 1.6208629609948264 47 1465 45 1501 49 1509 46 458 51 3713
12665 -2.3820633317192925 -1.2577503258507219 6.0745369577065116 148 144 133 1.3700145075584451 40 3281 47 4484 45 1411 49 2488
13551 -4.0593069537134356 -14.146659417346731 14.76018270813443 123 144 180 0.93916327516464904 40 306 49 365 46 1087
12668 -0.99116737888146389 2.379007921015674 2.8881137631817144 195 187 174 0.10279698494531953 40 2463 47 4511 46 2801
13036 0.36415669360816755 0.7492707430665817 4.1479129326564985 246 241 237 0.51467571036920168 12 791 47 4641 45 1555 6 3465 9 1665 13 491 49 1652 46 3941 50 3776 51 3911 19 834 18 855
12669 0.87040419755389553 -17.638693916010848 18.504417046221036 57 54 54 1.6931087244370477 41 3082 47 4528 44 1403
12672 -0.48271548829247068 2.7619068660671893 2.5340431316496383 213 205 192 0.24491577999275715 9 3583 47 4560 45 4069
13334 1.0413882537064614 2.385428884130897 2.7892127419123804 171 162 155 0.18509969257390646 47 4263 45 4060 49 4153 46 4412
12673 0.25863086261270679 1.7189964240494404 3.4373131678640121 127 118 109 1.0393286911111945 40 4202 47 4565 45 2529
12674 0.72316886364101995 1.3605924475568756 3.6414184490822552 168 159 152 1.8643246048223521 9 4192 47 4593 45 1665 46 4842
12675 0.55242830544307286 2.4216362641148734 2.7711576665752071 150 140 138 1.1377148423695944 40 2652 47 4603 46 4228 49 4043
12821 1.0196230608452936 2.2920561071798153 2.8666188419918455 211 201 199 0.56078571612777994 47 281 45 267 49 324 46 303 50 274 51 170
12676 1.0258953397137973 1.0609812020036009 3.865206495108068 170 161 154 1.3436854231603088 40 3835 47 4618 45 1246 49 1219 47 1578 46 1390 50 744 51 2372
12677 0.38620665148170358 2.6305208097643686 2.5842559814401405 171 163 159 1.4830573099254558 40 2832 47 4619 49 2258
15895 -6.2383413499134814 -0.075436950028587288 5.252720443388025 244 237 231 0.3835919783916924 17 1306 19 1434 18 18
12678 1.2539394679579503 0.10396792294761373 4.6083226594128393 224 219 212 0.45678337808982555 40 1513 47 4650 45 3561 49 1133 51 3872
13332 1.1834576553973573 2.3443140471586781 2.8075468116022404 251 245 238 0.52259698126006027 47 3729 45 4055 49 2239 46 2303 50 2088 51 4287
12679 -1.0920320984038121 1.4607937112515477 3.6278326894896082 190 181 174 0.9645360489323731 3 114 16 206 14 354 11 113 7 181 10 241 8 378 4 206 2 198 1 187 9 437 13 2004 17 417 47 412 40 198 44 297 49 1185 45 452 46 1324 50 687 43 255 19 513
12825 0.38637010804761218 2.5593942478506144 2.682727300364808 177 167 165 1.0153838748844914 47 4305 45 280 49 4129 51 4108
12680 -0.12539347891597388 1.4004327234627394 3.6373045052536281 143 138 154 2.0485640862289358 9 4370 12 2605 17 761 47 1597 4 1000 2 926 16 2935 14 3285 6 730 15 1807 3 391 16 2042 14 3295 11 1928 7 1392 10 1825 5 1484 8 1200 4 1465 40 1642 45 670 45 4258 46 1364
13851 1.4157089825810454 0.63773979368510669 4.1655343388001871 225 216 207 0.31050631677166618 45 3702 49 3166 51 797
12682 -0.66158951342222216 2.0259187802886869 3.1416673755818572 136 134 124 1.069718130530855 9 4134 12 2796 13 1001 47 1744 15 2044 3 1810 16 2307 14 1808 11 1191 7 4061 10 1183 5 1704 8 2402 4 1684 2 1439 1 1382 9 4126 41 2604 40 4372 44 2140 49 1872
12829 0.16693205787852575 2.7518899672410129 2.5217535413644065 204 201 187 0.59141924042568961 47 300 45 294 49 346 46 312 50 276 51 289
