# 3D point list with one line of data per point:
#   POINT3D_ID, X, Y, Z, R, G, B, ERROR, TRACK[] as (IMAGE_ID, POINT2D_IDX)
# Number of points: 369, mean track length: 6.1554224759053051
24017 0.51217880721874132 -0.14198050412159574 5.0350147492101174 121 111 109 0.8004805485234836 32 2507 23 2441 28 4417 31 2208
22327 1.2363312703376255 0.31051961642587056 4.6318946489995483 182 173 164 0.63705394947520422 21 5228 25 2586 27 1214 32 2517 23 3205 28 4112
24026 1.9839557802129848 0.39785869429623616 4.5078247391526451 255 248 246 0.57409562213747345 32 3770 23 2489 28 4227
22328 1.5823900290868995 0.87204578463395155 4.1499895069963566 140 135 131 0.38810680426868549 21 2988 25 2591 27 2328
23003 -1.1515751035604742 3.9035466510357253 1.8131075919790278 252 250 241 0.19742524800851249 25 3578 27 4271 32 4539
22329 1.4126984439706125 0.50690054947494978 4.4670629128252379 189 182 173 0.39520092221231157 21 2951 25 2608 27 3194
22330 2.0444625008119903 1.3512076247252338 3.7188778696771667 243 238 232 0.36247782193694716 21 2129 25 2643 27 2322
22331 1.4206808073814676 0.36927749825702444 4.6199606756764755 236 226 224 0.40996396464609469 21 2999 25 2649 27 3315
22332 1.96423097474085 1.2123534384520027 3.8619258317591534 225 220 214 0.40860015256143933 21 3175 25 2652 27 3104 32 1161
22336 1.4803091612230483 0.28909714495735195 4.6276633953590505 98 95 88 0.59609452355432635 21 3025 25 2664 27 3371 32 3592 23 3329 28 1417 31 4886
22337 1.9092187113227939 1.0490430403511084 4.0649788140170466 179 175 166 0.89039218565405154 21 3202 25 2675 27 3218
22338 1.6437007435569868 0.53318463936195182 4.4300671159721743 236 226 224 0.15475302211526043 21 2091 25 2677 27 3326 32 2534
22339 1.6149073723119078 0.41829994031975765 4.5161524131761137 149 148 143 0.51256553272525784 21 2094 25 2687 27 2491 32 4837 23 2409
22340 1.7872605094104714 0.69429413295196829 4.287203571221581 189 184 180 0.76820586894559195 21 1080 25 2693 27 2456 32 1254 23 2330
22341 1.6625858432370413 0.42940731838580021 4.5208399817332907 151 147 144 0.45423950355530557 21 3134 25 2706 27 2506
22342 2.2148665469523783 1.3046510429987619 3.7731486655322732 228 223 219 0.2642036566600135 21 2200 25 2712 27 1343
22343 2.0363393945497665 0.91463291254493073 4.0908888663921417 255 254 250 0.80571027977107246 21 1116 25 2727 27 1268 32 1245
22344 1.854257153002296 0.61870758898500289 4.3532675942185861 241 236 232 0.6501393530631725 21 2145 25 2728 27 3420 32 3528
22345 1.7423233418690001 0.40674149644451013 4.5249692178003249 162 158 155 0.37046156915046718 21 2131 25 2733 27 3488
22346 2.3538669845352911 1.4153727348304388 3.6661675992562772 248 244 239 0.93472909158237683 21 2248 25 2735 27 2403
22347 2.2752754898137244 1.2819375473446053 3.7914881922762831 183 178 174 0.28651550747275895 21 2235 25 2741 27 2418
22348 1.531054814212139 0.08933924338413643 4.834393085542712 88 83 80 1.4741517224143312 21 2105 25 2745 27 3570
22349 1.8395329993022866 0.46483688975276161 4.4640774585282781 156 146 144 0.48216241761895456 21 3251 25 2756 27 3510 32 3643 23 2432
22350 2.1652824457344848 0.99007318210781747 4.0234342128362162 246 242 233 0.38605786634159495 21 1139 25 2760 27 1274 32 1247
22351 -9.4101577718342746 6.5515633686172565 0.057211079178794082 203 199 190 0.30373963866486825 21 3701 25 2814 27 3615
22352 -8.6179270699802721 5.7955630304316452 0.67138086571187794 208 203 200 0.32954104584675875 21 3782 25 2851 27 3637
22353 -8.6039677210599432 4.5410602462304483 1.783299253191784 177 172 169 0.57477539797501287 21 1385 25 2864 27 1529
22354 -8.0939870535976404 3.7722562224077887 2.2951802247377335 204 199 196 0.43109216876838746 21 3845 25 2892 27 3683
22355 -7.270868466860466 4.4634558996105334 1.4425256094700021 209 204 201 0.51653898090379913 21 3877 25 2897 27 3675
22356 -6.3850491873010373 5.6823156452012427 0.39859286743692507 161 157 148 1.7143337546355963 21 3952 25 2934 27 3685
22357 -7.1699050716719812 4.3840149277828093 1.7424934551922071 174 169 166 0.4623514253989125 21 1480 25 2943 27 3720
22358 0.010340874031821341 0.65567833008845433 4.4363797621249175 104 99 103 0.63120065475404485 21 2001 25 2949 27 5116
22359 -6.7565110045017791 4.1037020438542591 1.8187237863152379 222 217 214 0.15664147127958006 21 3937 25 2958 27 1559
22360 -6.5498844899644961 5.650915405219548 0.65875355160523075 161 157 148 0.54800291179866056 21 3965 25 2963 27 3718
22361 -6.3924849518525084 5.1045380125497406 1.0492155408444139 215 210 204 0.80239962555134803 21 3977 25 2984 27 3740 32 3943
22362 -7.3854373224969878 3.0129123088053094 3.0085351888932563 180 175 171 1.709239307441196 21 358 25 2986
22363 -6.404138686798639 5.1491257041117002 1.0847386064856237 166 161 156 0.29469293479180653 21 3993 25 2989 27 3748
22364 -7.0951806655678968 2.0231974420455887 3.6461922761999066 207 203 201 1.1297997498826611 21 41 25 3007
22365 -5.8785094318704374 5.6499872000706475 0.58800880607690109 216 212 203 0.64553300084804588 21 4026 25 3016 27 3752 32 3951 23 3759
22366 -5.9171068419994537 5.0200590817644724 1.0286518651692687 169 164 158 1.0035957808185911 21 4010 25 3018 27 1545
22367 -5.7952187922233058 5.4056087843912408 0.78717869388322304 222 218 209 1.4256866711664649 21 4033 25 3027 27 1401 32 3839
22372 -4.6954752068465702 4.7682689833315104 1.3742838495940681 213 209 198 0.15990758283887999 21 4154 25 3177 27 1594
22373 -4.4425281785256931 4.7454439567488844 1.3177380403141568 144 140 131 0.70502125530323989 21 4166 25 3187 27 1500 32 2096 23 3942
22374 -4.2269987963943025 4.8825219849574664 1.2120687098998137 228 224 215 0.80481086762134091 21 5140 25 3206 27 1575
22375 0.52756888194188034 1.7814104947024734 3.4730759009600622 158 153 147 1.7870540645216504 21 5065 25 3218 27 4938 32 5238 23 4935
22376 -0.27386015685254067 0.29622194377783223 4.7263086853685481 141 132 131 0.29529519490591288 21 1793 25 3280 27 2636
22377 -3.6613017061223116 4.6767649716758033 1.3138913299695012 226 222 213 0.26425441540686706 21 4254 25 3281 27 3974
22378 -3.2900229528442386 4.2097971906429095 1.6146212668330324 229 225 216 0.48069405316396746 21 4295 25 3324 27 4022
22380 -3.007222251209106 4.1896116450755629 1.7098546476101621 160 156 147 0.13473908958565531 30 1703 25 3371 27 4058
22381 -3.1343964786133305 3.6942377830083677 2.1266739841507567 142 137 134 0.11070565249028591 21 4336 25 3377 27 4078
22384 0.12236056600437034 1.3855054918367282 3.9760499946916523 212 205 214 0.52245361529628553 21 4996 25 3437
22385 0.37366719288847383 1.6119987892309862 3.6453261958723209 217 212 209 1.0217691252605872 21 5026 25 3441 27 954 32 2204 23 2575
22388 -1.8277895841528395 3.356730225028282 2.1825218790769965 210 205 199 1.3878170341730245 21 703 25 3508 27 4222
22389 -1.1266208839921634 2.5103982124072202 2.8575381944903331 227 222 219 0.91201304906090053 21 4594 25 3671 27 845
22390 -1.1549801632961461 2.6389531059316278 2.8346140264344504 230 225 222 0.20705450227560926 21 4601 25 3675 27 1821
22391 -0.65632004105384578 3.4093540330533303 2.1976145761666972 166 162 153 0.40057915802660854 21 4664 25 3703 27 4381
22392 -1.4257714581474108 1.0177068650774219 4.2074514267696621 223 224 210 1.2224111680361407 21 5 25 3790 27 1902 32 1968 23 922
22393 -0.64399335115798018 2.4389122670011836 2.9892297659938696 145 140 136 0.40390739538059156 21 751 25 3801 27 4515
22394 -1.3136592890227412 0.87817866119253696 4.3085360658287577 232 233 228 0.58207418471483763 21 4644 25 3822 27 897 32 929 23 465
22395 -1.3028880029252756 0.67329688849488667 4.4513368227497701 203 200 195 0.98710096355262655 21 1333 25 3845 27 1933 32 2017
22396 -1.3346026871358461 0.75471874655207605 4.4688121244124286 206 205 200 0.40401268585474881 21 1701 25 3851 27 5643
22397 -1.1946562339996887 0.78128845817236869 4.3666969346004167 226 225 220 1.0009976392601792 21 4674 25 3859 27 4688
22398 -0.3042217575374484 0.51203301670303303 4.558608202999137 212 206 206 0.64835165304025277 21 4899 25 3860 27 2596 32 5514 23 2049 28 2299
22399 -0.18380126224632318 2.8468703270375957 2.6458259694311814 249 244 240 0.31764756578521802 21 4787 25 3864 27 4542 32 4817
22400 -1.1528044426951991 0.80621635656417523 4.370475701908175 219 221 206 0.61394698563876127 21 49 25 3875 27 906 32 5168
22401 -1.1038503231441787 0.56597519398019946 4.5414839280747588 123 119 116 0.75795615362462998 21 4696 25 3912 27 4766 32 5260
22402 -0.96962009836510754 0.70356153761856322 4.4277847357557931 194 195 179 1.9642127427152318 21 1723 25 3932 27 4772 32 5252 23 948 28 2198 31 279 26 250 22 3575 29 1569 29 2152
22403 0.34132852886577203 2.8434113933345428 2.5171993026423891 246 242 233 1.244589758327227 21 4889 25 3955 27 4615
22404 -0.49373566509380851 0.67713806992922521 4.4227133747525356 237 231 233 1.3212628295942836 21 782 25 4056 27 4925 32 986 28 538 28 5063 31 657 26 737 23 5169 29 1528 24 1027 22 1384 33 1623 34 1181 35 3863
22405 -0.37757752993018578 0.43731926774149243 4.6015253480974794 140 126 126 1.4183619141899337 21 4874 25 4098 27 5021 32 5522
22406 -0.472867460947338 0.38836089407410623 4.6525146468177008 185 172 165 0.44127478116276331 21 1769 25 4121 27 2489 32 2111
22407 0.39534044635279908 1.9713642359571792 3.2908294128135176 179 174 170 0.98919727945817182 21 2003 25 4123 27 1989 32 5125 23 4833
22408 -0.41161432094133704 0.53416274274873865 4.5589659266799885 201 197 196 0.10088455749755876 21 4871 25 4126 27 4998
22409 1.6253073694715616 0.5868603133021929 4.3762589636030844 239 234 230 0.68174585484985373 21 3065 25 4160 27 2430 32 2497 23 3094 28 2462
22410 1.4706165537352365 0.31253468476202828 4.6105498193385168 117 112 108 0.49205772825117983 21 3017 25 4167 27 2479 32 3565 23 2430 28 1402 31 4860 26 2714 22 3400
22411 1.4953959970563813 0.32805738118212108 4.6223397321980295 151 148 143 0.95263223427251176 21 3035 25 4189 27 3370 32 3591
22412 1.8055666108986959 0.828235446353218 4.1906250025261054 219 215 206 0.88301920547764545 30 5601 25 4198 27 3252 32 3327 23 4465 28 2404
22413 -1.6277348141324013 0.90691573758329036 4.2690908911559902 221 221 209 0.75805289969609202 21 147 25 4203 27 4569 32 5006
22414 1.6234739108032445 0.52638104572406119 4.4565657509990579 243 235 232 0.52184625805005469 21 3086 25 4207 27 3330
22415 -0.63701916531965641 2.7937790696783704 2.712699674985271 250 245 242 0.26917524398785375 21 4691 25 4215 27 2171
22416 1.6206029943329732 0.46632240235228617 4.4818842333753999 170 165 161 0.48073160913087715 21 3089 25 4223 27 3353
22417 1.5756557521113306 0.34818987386529127 4.5801441185769685 243 242 238 0.29939229924881322 21 3080 25 4249 27 3407
22418 1.6859046666970972 0.52044722714040337 4.4366360471544821 187 177 175 0.2413667193082992 21 5296 25 4255 27 3361
22419 1.6224786331155205 0.41355293251735692 4.5416979830156423 118 115 112 0.31584675785503641 21 5247 25 4266 27 3402
22420 1.527975516593 0.22815170311138366 4.6849831510880744 184 176 173 0.70707799475969013 21 3075 25 4273 27 3460 32 1327
22421 1.6682410200576387 0.45027195681906096 4.4998734913256833 152 149 144 1.4119035807016098 21 3126 25 4274 27 3401 32 2563 23 2413 28 4093
22422 2.2141841325011145 1.3375525091450027 3.7342341162406623 149 144 139 0.55603103940590393 21 3334 25 4278 27 3189
22423 1.5391353630954305 0.19895004814890135 4.695056126590103 162 157 153 0.4927176130302513 21 3084 25 4286 27 3484 32 3705
22424 2.3049401046636877 1.4404133762290277 3.6336479937747881 131 126 121 0.16802865616001683 21 2213 25 4294 27 3171
22425 1.584966205776269 0.21032199275669744 4.681211466345915 252 246 244 0.60690987250847916 21 2100 25 4312 27 2541 32 4919 23 2503 28 1463
22426 2.1415670436092364 1.1273601672514164 3.9145941484925095 116 111 108 0.10075834833362525 21 3331 25 4319 27 3270
22427 2.2553595743648698 1.3027263562115969 3.7584691353259081 143 138 133 0.18953094144103447 21 4379 25 4321 27 3233
22428 2.1048362819585384 1.0976126430750512 3.9889342532805601 166 161 153 0.63294564515331198 21 3328 25 4338 27 3296
22429 1.7234455962003872 0.39189792691106196 4.5405900658846399 174 169 166 0.57889567139934284 21 4288 25 4351 27 3486
22430 1.0707084932644166 0.61454546632723084 4.4012528459263134 211 203 200 0.56193902606290291 21 1915 25 4367 27 1122
22431 0.22110421012897891 1.381358445869534 3.783200862792079 235 230 224 0.55487733812292106 21 825 25 4372 27 952 32 2211
22432 2.1942167668078438 1.1119834762099039 3.9259884674709915 141 136 133 0.058685854991059772 21 2214 25 4377 27 3319
22433 2.3859741424678473 1.4034903956153111 3.6691946023479916 255 252 248 0.27449206479973404 21 1163 25 4386 27 3255
22434 2.3573080872209236 1.3342627145828754 3.7248817720362006 182 177 173 0.37303620803774712 21 3437 25 4400 27 3278
22435 1.8282787850574962 0.43804405122750423 4.4914699213285472 156 146 145 0.57604282157921871 21 3253 25 4422 27 3519
22436 2.2085978256256311 1.0011731220519173 3.9748496928184651 230 226 217 1.2993024972302518 21 3393 25 4432 27 523
22437 0.17104848405589279 0.47507343788857492 4.5561256233911651 251 246 236 0.35292824241443455 21 839 25 4462 27 1026 32 662 23 1065 28 923 31 1134 26 764
22438 0.10882887541241525 0.33043872440186695 4.6853790518357101 149 144 138 0.35830295061940182 21 5050 25 4466 27 1038 32 2861 23 2744
22439 1.148790241193379 0.73954894826839468 4.2900810312666842 136 131 125 0.77914253416864676 21 562 25 4468 27 708
22440 2.1311275616037832 0.84408355858155515 4.1459406463044788 82 78 67 0.4181938613232028 21 3391 25 4477 27 5521 32 3476
22441 2.1835606343349365 0.94090494635301314 4.0921504108268012 184 179 173 1.0113642289883134 21 3417 25 4480 27 2513 32 3449
22442 2.2258290605949207 0.99665710914017425 4.0280518511829841 255 252 248 0.50635738739562874 21 3424 25 4487 27 3424
22443 1.9635029363350991 0.54008404280002953 4.4157148771005712 192 183 174 0.78783065490484638 21 3339 25 4518 27 2568
22444 2.2521158727296906 0.94869587060029104 4.0593930894473091 124 119 113 0.23802748451609124 21 3462 25 4540 27 3476
22445 1.8479110046953837 1.9383077065105059 3.2600847160680875 252 247 243 0.40147910357079986 21 2030 25 4568 27 2677
22446 0.8716415655728259 0.25798195421656683 4.6831062846817151 244 241 232 0.36905471412271562 21 2684 25 4575 27 2286 32 3281 23 2336 28 4054
22447 2.2149786771448543 0.85048083130721575 4.1761731231238821 192 187 181 1.0856865965745603 21 3469 25 4598 27 1318 32 1385
22448 1.4260990162821028 1.1110156725971123 3.9742551857134627 185 180 176 0.21385091575727411 21 2842 25 4659 27 2851 32 5892
22449 1.5084807982586848 1.2390279463891118 3.861497677419274 232 227 221 0.31272863596870426 21 2859 25 4661 27 2209 32 2875
22450 1.0871018190410338 0.51368320561060887 4.4814520626042862 241 233 231 0.32974292849495024 21 2765 25 4665 27 2988 32 3215 23 2973
22451 1.6023177674186901 1.3124706023290715 3.7523058943140644 199 195 186 0.25901895106107869 21 2895 25 4686
22452 0.97783856445254058 0.36635506994492173 4.597903327997706 165 160 156 0.48602090920960839 21 2723 25 4696 27 3005 32 3258 23 2318 28 3969 31 4779 26 1837
22453 0.90696437816220377 0.14685509349246331 4.775351947397529 239 234 230 0.40479563726396606 21 2717 25 4699 27 2332 32 3393 23 2387 28 1411 31 4451
22454 1.6637196132933536 1.4405235464325929 3.6932499941734638 239 235 224 0.64241848768926391 21 2932 25 4709 27 2799 32 2814 23 2050 28 2205
22455 1.0232120124554682 0.21963234951480842 4.7189461361374354 220 215 211 0.32897519210573178 21 2774 25 4711 27 3118
22456 0.94045186540001036 0.15937274121012299 4.7641613727962602 244 239 235 0.33631148662671584 21 1913 25 4720 27 2500 32 2494 23 3225 28 805
22457 1.2240078765381068 0.64501900649270816 4.379509687128154 245 237 235 0.26978783062286327 21 2819 25 4737 27 3003 32 3187
22458 1.1489730383801899 0.43171551942897374 4.5333236969017801 254 249 248 0.59562295894276496 21 1948 25 4753 27 2324 32 2428 23 3043 28 2476 31 4734 26 752 22 1270
22459 1.6060329341846935 1.2128157217564164 3.8783665328846348 115 111 102 0.21134821223553124 21 2936 25 4755 27 2895 32 2931 23 5490
22460 1.8348586892075756 1.6145528601110004 3.5427705529866635 224 219 216 2.0475637519691556 21 2067 30 2740 25 4757 27 2790
22461 0.9988098532968418 0.40341155239107696 4.574687553215492 226 221 217 0.25595593148290485 21 2730 25 4765 27 2997 32 3247
22462 1.3001356675167934 0.61255544961806052 4.3699490820752205 245 241 238 0.41052877110191366 21 1978 25 4779 27 2310 32 2393 23 2270
22463 1.1644452268698298 0.32471864215457785 4.6180649214808511 248 239 232 0.33074067648593169 21 1964 25 4808 27 2361
23847 0.034977620012413786 0.068612394320461109 4.8982086526073942 220 215 212 0.46169338693060186 32 2320 23 1132 28 839 31 2077 26 857
22465 1.5571751743686901 0.46049677051877486 4.4901110531480271 238 234 225 0.55586728943251984 21 4233 25 4825 27 1263 32 4816
22466 1.3845703200266919 0.66886457318250914 4.3334213000291237 235 231 220 0.53741077556644412 21 2897 25 4830 27 3079 32 3233 23 2954
22468 1.3134775540022579 0.53208250634153298 4.43819396287887 250 241 240 0.65821377561000782 21 2864 25 4835 27 4457 32 2427 23 2308 28 863 31 1142 26 730 22 2338 29 1435 24 2328 33 3192
22469 1.6494434339352058 1.1568255104700618 3.9389613339396319 184 179 173 1.323472110890489 21 5269 25 4845 27 2968 32 3006
23844 -1.9707546516300485 2.0444827049592753 3.3055521605602332 221 220 215 1.1233733215996438 32 4691 23 1114 28 1150
22470 1.3008737356329898 0.48515449223453239 4.4896886376428053 240 239 235 0.41216055762388987 21 2875 25 4860 27 3138
22473 1.1946242101654854 0.27933840515736019 4.653903584885656 251 242 234 0.44795741445964316 21 2849 25 4866 27 3190 32 3442 23 2382 28 1380 31 2014
23848 0.027299366101611933 -0.056049451574900724 5.0120410427677449 148 138 136 0.45189030267955238 32 1163 23 1156 28 1401
22474 1.4391899665407668 0.6379089522369551 4.3738001032312903 211 207 197 1.5888524101577124 21 5242 25 4905 27 5568
22825 1.714616466578041 1.332952582322849 3.7946240486739948 235 230 225 0.77477481975603169 25 4788 27 2234 32 2275 23 5402 28 5051
22475 1.3408429279653387 0.45414340113427309 4.5020416297048245 142 138 135 0.3454177466709048 21 2912 25 4906 27 3168 32 2476 23 3108 28 3975 31 4722
22818 0.83267991617239101 0.72729318726996384 4.3244630248772209 207 203 200 0.31640112422185307 25 2420 27 2163 32 2279 23 2164
22476 1.5825047552293721 0.14368691596843675 4.7499214224337427 155 151 148 0.67692358286457477 21 3139 25 4907 27 3557
22477 2.3535449906536194 1.3770310651276092 3.6818227758819799 166 161 157 0.19569009647762856 21 1158 25 4910 27 3244
22480 1.2123070716636464 0.26627671138764031 4.7061336090785764 244 234 232 1.5242997426931819 21 1004 25 4921 27 2404
23863 0.57544029355476356 -0.17477344831227712 5.0510115609031612 231 221 219 0.45638317766673986 32 1273 23 1223 28 725 31 1333 26 2030 22 1566 29 2306 24 2707
22481 2.2433345098734643 1.1188896170254639 3.9167408712538934 242 237 233 0.41172365720259435 21 3410 25 4933 27 3343
22483 2.0714931735630402 1.5416841312834995 3.5279029858423909 227 223 212 0.59726413062446071 21 3161 25 4951 27 5510
22484 1.9332745574304344 1.3504961386445242 3.742138240254659 165 161 150 0.31777858840077094 21 2101 25 4956 27 2289
23860 0.40775222099193509 -0.1737412547497823 5.060752065636752 178 170 167 0.068610656146945115 32 2486 23 1211 28 740
22486 1.4673208312997539 0.48644304627716689 4.4374821048514139 238 230 219 0.87503527526166414 21 2982 25 4977 27 3217
22488 1.9597807042851858 1.4248226396465875 3.7243335398385939 233 229 220 1.6218895929857655 21 2110 25 4981 27 2994
23864 1.0297143020870849 -0.093846630747290508 4.8709576221107396 191 181 180 0.59851803818779292 32 3615 23 1241 28 732
22490 1.9022535745101503 1.2405655539301823 3.8438926667011035 236 231 227 1.7084065943146909 21 1074 25 4995 27 1167 32 3051
22841 1.8812955427328864 1.1527575287507914 3.9270330068082289 211 206 201 0.62174085212814612 25 2637 27 2338 32 2358
22491 1.3986552440489695 0.37938770152363865 4.5775444716963385 242 232 231 1.3001109721403927 21 266 25 4999 27 3272 32 3481 23 3217
22834 1.822094392707243 1.2330125390453275 3.854265273624256 171 166 163 0.40288223446651639 25 4932 27 2291 32 2323 23 2149 28 4987 31 3939 26 2239
22492 1.3780374804414379 0.29031183882111627 4.6380848888027941 133 124 119 0.74681588602102722 21 2973 25 5012 27 3312 32 4830 23 3286
23859 0.12554406882057376 -0.21768820483647064 5.1268429313938437 223 214 211 0.69381426248825473 32 2425 23 1197 28 746 31 1350 26 2087 22 4051
22493 1.3126157620272558 0.19018940667140488 4.7326349765981899 204 201 196 1.3352635131470481 21 2028 25 5018 27 1267 32 2579 23 3372 28 775 31 4992
22494 1.867855924581084 1.0778798648856571 3.9600276796986602 249 245 235 0.32979876200964447 21 2104 25 5024 27 3117
22495 1.8538038723874022 1.0482178182445634 3.9825012749058599 253 250 246 0.26005910073138566 21 3121 25 5031 27 3122
22496 1.251914001114389 0.97841766619836901 4.0851196041734212 158 153 149 0.18266526409517261 21 2776 25 5053 27 2811
22497 1.1965434782595872 0.92314041345243192 4.1386049534738838 167 162 158 0.25781873408379369 21 2754 25 5062 27 2813 32 2940 23 2683 28 4876
22498 0.87750428957571569 0.38372346867172519 4.5861539874655817 113 109 98 0.25757372661518341 21 2677 25 5069 27 2932 32 3199 28 3915
22499 1.061096762615348 0.75612075760511954 4.3076655730098663 240 235 231 1.4468117969013794 21 2714 25 5076 27 2853 32 2324 23 2190
22500 0.80479529381918158 0.34313395135075275 4.6364389908562558 182 178 169 1.4496159111315408 21 2659 25 5085 27 2910
22501 0.74701139599444999 0.30537168585717211 4.6894571202991884 188 184 175 1.9960088102282529 21 2630 25 5102 27 2915 32 3219 23 3034 28 5374 31 4851
22502 1.6564529996667601 1.7292773939255952 3.3454533659718644 223 218 215 1.3376789124429791 21 2832 25 5104 27 620
22503 0.93973458267306686 0.63429728013652142 4.3775335988156447 247 241 240 0.71981645437436292 21 2672 25 5109 27 2205 32 1148 23 1101 28 1365 31 1869
22504 1.1930440629295318 1.0754298065667776 3.9984061636539248 217 212 208 0.10019767506149663 21 2725 25 5111 27 2742
22505 0.81435212473288376 0.47157533088054626 4.5248569487905224 113 110 101 0.4930059264650748 21 2635 25 5119 27 2847 32 3097 23 2250 28 4715 31 1930 26 2646
22506 0.67581886995673612 0.31752726653759339 4.6833310910992063 182 178 169 0.20673021729741517 21 2597 25 5136 27 2869
22507 0.69203520092000881 0.31837514110147147 4.6488382320605792 133 129 120 0.22572182517915559 21 2596 25 5141 27 4332 23 2976 28 2466
22508 1.0113634043646986 0.99930346370220935 4.1152338440274816 170 165 161 1.4712738772811023 21 2671 25 5157 27 2710 32 2240 23 1046 28 974
22509 1.1852448258722486 1.2463231994483659 3.8743824271033529 240 235 228 0.29104110638838221 21 1895 25 5159 27 2678 32 5682
22510 0.87211353028502692 0.90124059363488473 4.1944935450840148 235 230 226 0.90044658309512349 21 908 25 5197 27 2693 32 2837 23 2610
22511 1.2680976007693048 1.6424199135714945 3.5680459732719352 180 176 164 1.1470541147624722 21 5239 25 5202 27 5283
22512 0.44548976470101292 0.16476457976070519 4.7827112074954607 244 240 234 0.96829601105458818 21 1819 25 5208 27 2197 32 1173 23 2300 28 837 31 1218 26 1910 22 3684 29 2149 24 2579 33 1572 34 3423
22513 0.45223509605894974 0.23281666788534996 4.7299752566251536 243 240 231 0.27646871130561362 21 1817 25 5231 27 2180 32 2347 23 2271 28 2479 31 4870
22514 1.4931791729893817 2.0681868936609029 3.1647333375880851 247 242 238 0.93633755013944031 21 1907 25 5240 27 5187 32 1415 23 4083
22515 0.84783493510626851 1.1183853343300165 4.0580814399848908 149 145 136 1.0364587019990663 21 2576 25 5250 27 5346
22516 0.4022547681175816 0.21062743773034337 4.7458752005918825 177 174 165 1.4666210826793145 21 2459 25 5255 27 2756 32 3079 23 2953
22517 0.57250036375672164 0.5148141745271142 4.4932902472646248 253 244 235 0.061299304140441609 21 2506 25 5256 27 2702
22518 0.33823604633141074 0.3236309378791874 4.7444479913452291 154 151 142 1.7513041163800789 21 1800 25 5290 27 2149
22519 1.0486100992532033 1.4763229662847006 3.70270187335854 224 219 216 0.44724371469974245 21 912 25 5292 27 2046 32 5500
22520 0.31291888068289597 0.26740638694867858 4.7129889330840129 109 105 96 0.32887220164083242 21 2419 25 5328 27 5566 32 3001 23 2881 28 1606 31 4821
22521 0.63012313491708016 0.82182492093252313 4.2412725897525823 243 238 235 0.62564393703629484 21 2494 25 5331 27 1039 32 1076 23 2095 28 4932 31 1801
22522 1.0230087100820215 1.5575758568318332 3.5765124368010901 192 187 184 0.97749176643660629 21 4002 25 5362 27 5601 32 93 23 73
22523 1.3723978497110156 2.3037221428173806 3.0027055414073609 255 252 248 1.0292262601664139 21 2664 25 5363 27 5045 32 5275 23 4907 28 3747 31 1564 26 1542
22524 0.59174617534348894 0.92376764509127374 4.1755573906901722 234 229 225 0.80780047857522064 21 2467 25 5373 27 5589
22525 1.2865334604793812 2.2011815354504423 3.0804113039003895 151 146 142 0.1263253046638538 21 5243 25 5385 27 5040
22526 0.35744230695389467 0.54439268654246331 4.4800504594914878 255 254 243 0.38445481676007026 21 2402 25 5391 27 5329 32 2817 23 1303 28 4775 31 1890 26 2613
22527 0.13967182499942216 0.23000676080682123 4.7776077125629008 222 212 211 0.080503345138249457 21 5073 25 5398 27 5392
22528 0.13996280642330688 0.22891324888646059 4.7533488988547381 97 87 86 0.29364433613773083 21 5067 25 5407 27 5383 32 2929 23 2843 28 2440 31 2008 26 2871 22 3686 29 2182 24 2639 33 2206
22529 0.13320423372984025 0.34354567309910561 4.6848132303751289 223 218 214 0.26947814334128667 21 5287 25 5436 27 5330
22530 0.77124792294139133 1.4550693915568025 3.6938305704026897 231 225 225 1.6805043561714184 21 2469 25 5443 27 2626 32 5396 23 5079 28 2162 31 3744
22531 0.075083850432243179 0.2300852952520534 4.7348449131157357 132 122 121 1.0755989544212057 21 515 25 5455 27 5331 23 2201
22532 0.60047488115211556 1.3094303301534382 3.8535272827058535 144 139 136 0.3884584124551364 30 3413 25 5474 27 5099
22533 0.12147980007659949 0.47519665790008131 4.5611601069544294 228 223 217 0.77742347855164495 21 5037 25 5480 27 1020 32 2207 23 2135 28 2351 31 1130 26 1832 22 3538
22534 0.067611734453414576 0.38751696454474832 4.6289464158685059 127 120 117 0.25734832007867037 21 5025 25 5491 27 5259 32 2223 23 1576 28 2381 31 1936 26 1857 22 3604 29 1540
22535 1.2946084714806334 0.096065205031740181 4.7880264280607845 119 118 113 0.72625599286358222 21 2952 25 5533 27 1346 32 2612 23 1238 28 4358
22536 -0.020284829929217131 0.39633038443360979 4.631074876032617 226 218 216 0.49501027476056692 21 5315 25 5536 27 5211 32 2198 23 1062 28 915 31 1154 26 1861
22537 0.0009422851324017371 0.4660546064956696 4.5749567641100493 119 114 111 0.39439498529465278 21 4992 25 5542 27 5191 32 2180 23 2122 28 4783 31 1914
22538 -0.10301478917376607 0.32647365250648297 4.6876177052698456 222 212 211 0.81386685983129292 21 4962 25 5558 27 5201 32 2203 23 2150 28 2387 31 1959 26 2833 29 1575 24 1117 33 2242
22539 -7.6164878381591423 5.8737688469094786 0.2921275624357535 210 206 197 0.93514534744109101 21 3835 25 5573 27 1602
22540 -7.4465058335447525 6.1419979458570664 0.21598709798684132 172 168 159 1.3625098835486644 25 5575 27 1477 32 3880
22541 -6.3957477574569861 4.9152439863857893 1.3474221719364112 208 203 200 0.31868929692222919 21 4007 25 5583 27 3762
22542 -4.880577917776086 5.0163806201925993 1.0737972306688661 203 199 190 0.40131522785092538 21 4103 25 5594 27 3838
22543 -3.8674334155167918 4.3394489104562268 1.5521882125363931 155 151 142 1.4389478072869908 21 4232 25 5607 27 3958
22544 -4.074964841629015 1.3662243914212651 4.2915800100903958 209 210 196 0.04271787456253999 21 7 25 5621
22546 -0.68395264947394963 2.2854964167455414 3.1262289580584213 248 243 240 0.44349282469600854 21 4702 25 5651 27 4532
22547 -1.2606343015137169 0.75519945539815148 4.4313008466357191 93 95 84 0.60308761599260374 21 744 25 5658 27 4694 32 5166
22548 0.97199006979911162 0.37708113424022471 4.5841648459837216 217 212 208 0.44387954200019397 21 2716 25 5692 27 2990 32 3248 23 3028 28 3953
22549 2.0024267384779142 1.6754516116590985 3.5560108345429318 199 195 186 0.80430590349915576 21 3129 25 5753 27 4361
22550 0.32280464074085119 1.1027445604837032 4.0321275815668187 213 209 226 2.0703953411340472 21 835 25 5766 27 5059
22551 0.92867099467553338 1.991160987984643 3.3177657786013577 165 160 156 0.80760591250142999 21 2499 25 5789 27 5007 32 5287 23 4953
22552 -2.4442134822969148 2.7973184592126152 2.8105266789777992 235 230 221 1.7305708774939068 18 3926 20 3981 30 4562 21 1625 25 3491 20 3435 30 1927
22553 -1.6097093776664522 2.3918529982839716 3.0585171854469575 186 178 168 1.9814466655300425 20 2431 30 1990 21 4526 25 1996 20 1727 30 1997
22554 0.80300598354471686 0.95714016255313294 4.1442097091554846 233 231 226 1.8552468106044897 19 908 18 1933 17 2736 20 2065 30 2390 21 893 25 2393 15 4863 9 889 14 744 16 1483 5 431 7 657 11 876 4 864 2 708 6 600 3 627 1 1182 8 714 12 716 13 4780 10 2159 45 702 44 779 43 1800 46 781 47 655 48 1733 49 1818 50 1713 51 1195 39 3340
22558 -0.057093753353424537 -0.40250538960435117 1.864457297209887 203 199 200 2.6501090431438676 21 641 30 215
22559 -0.23271148394843441 -0.64070332708716704 2.1568765124924449 0 0 0 2.5275846123512924 19 3298 20 1290
24271 -0.82126957958030511 0.34549454703503452 4.6633970751184499 143 138 134 1.252488055461167 32 510 23 5240 28 4906
22573 0.4424350222551518 1.3070560023326647 3.8579542409976644 204 199 196 1.0560415126687872 25 2261 27 39 32 509
22577 1.0768479212340412 0.50262490944026594 4.4715252386124398 192 184 181 1.5672983346302618 25 103 27 97 23 86 28 86 31 1923 26 2593 22 2363
24272 -0.12266340682968181 0.69959046103224198 4.38304070381455 192 186 209 0.33369682291421299 32 5475 23 5244 28 5018
22582 -1.3860967632464645 3.9493381206660563 1.7665757823426305 201 197 188 0.75716026871526199 25 259 27 123 32 132
22586 1.579367567177498 0.6561101148432017 4.280445047559672 177 172 167 0.74861851587368489 25 663 27 170 32 177 23 191
22587 1.0242162602022291 0.16778246566870275 4.7480544320273985 206 201 195 0.34586103653478573 25 338 27 171 32 172 23 179 28 169
22588 0.84632374797507359 0.13798172967381417 4.7922894071671225 201 196 192 0.87993950379532149 25 184 27 176 32 175 23 181 28 95 31 191 26 269
24287 0.22863136465437753 0.6645405833984751 4.3622864919622053 147 136 134 0.79216523714448439 32 1048 23 5360 28 4916 31 4192
22589 0.57996531174365074 0.94873177857123348 4.1914353625979786 217 212 208 0.82618283038504181 25 303 27 196 32 195
24280 1.665675862471413 1.5702750916473054 3.6657738682105743 183 178 175 2.0773359402195921 32 2776 23 5296 28 5142
22590 0.67158781208888318 1.1666635568294736 3.9733826428486472 222 217 212 0.50457203916874582 25 168 27 202 32 99 23 120 28 150 31 141
22593 -5.7220911034778554 5.5039804625807678 0.70745434796813411 201 197 188 0.86399347778166802 25 438 27 231 32 370 23 3668
22594 -5.1739499529656188 5.7433699013791717 0.4653041631034045 197 193 184 0.4586201203745901 25 445 27 234 32 371
22596 0.50081249509179071 1.2494364941194924 3.9054726101815223 178 173 169 0.5409596850325199 25 292 27 291 32 515
22597 -0.11063144555660288 0.24996458633902485 4.7434595219780249 144 134 133 0.74353578943177856 25 1009 27 295 32 267 23 263 28 576 31 175
22598 1.0896507769413246 1.5785126288247848 3.629361983680349 222 217 214 0.69366744106160516 25 591 27 296 32 247
22599 0.55766210176328612 0.71755069255459825 4.3666546900943635 232 228 216 0.41501116460157184 25 586 27 297 32 269 23 257 28 291
22601 1.3182546421073309 1.2281975825970022 3.8948182539975829 208 204 195 0.80536848130356187 25 5083 27 304 32 2809
22602 1.8119614500818764 1.3745655592505523 3.7277562220982046 220 215 209 1.1304688080243184 25 840 27 320 32 1121 23 5394
22603 1.438893254026721 0.54677526694630951 4.428701580527135 189 181 175 0.72131805711087449 25 350 27 333 32 305 23 286 28 316 31 625
22604 1.1088621909690155 0.16174481966134274 4.7555163053306657 212 206 204 0.45547096118919872 25 344 27 334 32 312 23 176 28 337 31 328
22605 1.1944688911353765 0.065258887336111515 4.8144871881252485 219 218 214 0.87946909235573822 25 351 27 339 32 327 23 317 28 348 31 714 26 3092 22 3620
22606 1.37158559527774 -0.0070742205905716671 4.9068813858693368 226 218 215 1.6186334822626489 25 225 27 352 32 3811 23 3630 28 1553
22607 1.4722268699610392 0.031403525477232054 4.8292924479907997 238 237 233 0.53481513403240699 25 691 27 354 32 345 23 330 28 672 31 597 26 563
22608 -6.8512601331089877 6.6162614046421844 -0.31393583719817447 175 171 162 0.4753353513646133 25 1318 27 372 32 381
22609 -6.8158866699223726 7.033870365127517 -0.45513007300037744 170 166 157 0.6436104005878972 25 423 27 373 32 384
22610 -6.9080621106710831 6.0978913112582571 0.2208374764709872 174 170 161 0.81071688697961919 25 513 27 374 32 594
22611 -6.1394657589025483 6.6842632881506159 -0.19702625687611816 203 199 190 0.44542066887873388 25 224 27 383 32 386
22612 -6.3219895038274432 5.1699746905279644 0.89081847357853972 168 164 154 0.21076491823807519 25 2966 27 386 32 393
22613 -5.7443567331688872 6.4545867070556788 -0.10249435377976969 169 165 156 0.63618490451213083 25 228 27 387 32 711 23 369
22614 -7.0923453995200694 3.4299734262264692 2.5046904065279239 203 198 194 0.85205705409456622 25 1744 27 389
22615 -5.3299847157973117 5.788611422695717 0.4117978596760522 172 168 159 1.2540297742736917 25 443 27 391 32 398
22616 -3.8946711768607587 5.7833931314869895 0.36826890991328698 197 193 184 0.9323267645597676 25 457 27 406 32 4077
22618 -3.7064405877740754 5.6152422849032781 0.57690391580966427 169 165 156 0.42905896198192989 25 461 27 413 32 409
22624 -1.9942640964741547 1.2450394606902981 4.140645480721191 159 157 145 0.79326159642531202 25 1145 27 482
22625 0.35307161675459003 2.9911868258656997 2.5184532952191172 163 159 150 0.91422464732513298 25 537 27 490 32 901
22626 1.1850501632699395 0.033590809584874322 4.8322448651845491 170 169 165 1.0655720984758363 25 664 27 515 32 546 23 564 28 1499
22628 0.61354284567453943 0.4197710075583026 4.6295832506020478 178 169 162 0.79234359930900811 25 2419 27 532 32 2337 23 2253 28 4883
22629 1.1983566377240908 -0.061476049117412099 4.9199600658029201 234 229 226 0.55751667937152294 25 671 27 536 32 569 23 507 28 677
22630 1.3660451751616451 0.013299453382931939 4.8508018758416922 221 216 213 0.56627284768259256 25 685 27 552 32 577 23 505
22631 0.70761638779390656 0.40973310085025128 4.5755052113917696 210 201 194 0.72079640745617546 25 606 27 574 32 624 23 2256 28 311
22632 1.7893149286111558 1.0530567818346344 3.972650987484891 194 189 186 0.28349377046940788 25 2616 27 587 32 1165
22633 1.8651560458809673 1.0898181970429492 3.9499485244213752 230 226 215 1.2373676717521127 25 188 27 591 32 549
22634 0.9239447582801964 0.052789459137536236 4.8584390863678237 163 158 154 0.43864451473279842 25 4761 27 599 32 591 23 550
22635 1.0682820990082185 0.95692084559293566 4.1069767047726371 235 230 226 0.71636680098717576 25 612 27 606 32 272 23 340 28 297 31 664 26 437
22636 1.5625458933949521 1.6123131971781024 3.5804959013944808 161 156 153 0.80328716930223598 25 895 27 610 32 1053
22637 0.80814815107849247 0.95818798359078905 4.117861979629561 230 225 222 1.1770842782588418 25 592 27 621 32 1072 23 1030 28 5005 31 4032 26 2383 22 430 29 402
22638 0.96640881572530402 1.1764253267651434 3.943975202436286 219 215 206 0.583056099112088 25 593 27 622 32 255
22639 1.3285413084364512 1.9143130018857781 3.3230659584737707 172 167 163 0.59026764541349619 25 325 27 645 32 992
22640 -0.70159245477356857 0.7964210826826329 4.349997092422619 196 194 181 0.67462300751492854 25 2142 27 673 32 500 23 480 28 524 31 357 26 604
22641 -6.2233646203087014 6.6236784987618211 -0.17190331170113138 166 162 153 0.90641851475772284 25 431 27 685 32 1403 23 1362
22642 -4.1076952548521906 4.9926072067669693 1.0845381813431387 175 171 162 0.68105485827661538 25 1835 27 687 32 4148 23 1448
22643 0.79205146651556491 0.076012070592526682 4.8386065845504849 228 223 219 0.42079259940956526 25 879 27 707 32 533 23 297 28 635 31 1251 26 832
22644 0.97023038537157069 0.81982610361216113 4.2438196178028766 159 154 150 0.75005299699425343 25 918 27 711 32 644 23 633 28 558 31 1079 26 1738
22645 -3.7300652851385179 5.9178706824671918 0.26632560473890976 160 156 147 0.88733081864239249 25 1245 27 720 32 4086
22646 -5.7291194635240883 2.8589757137644414 3.036286367746023 188 185 181 0.94794284033379506 25 127 27 734
22647 -3.0966752834838442 5.4759871607678168 0.66148208212915394 176 172 163 0.12964636964239515 25 1229 27 749 32 766
22648 -4.5999816206445994 1.9787427539585838 3.3973806854644919 176 172 169 1.5224994786062778 25 44 27 755
22650 -0.068273322215321827 -0.50982827886722926 2.4324602335117178 36 27 70 1.1908343209459196 18 1462 27 787
22651 -2.0253120178287038 4.6789534283729539 1.2919189855341646 214 210 201 0.21244981245519998 25 486 27 789 32 427
22652 -1.9225008666783989 4.335249859710709 1.4917344158859731 229 225 216 0.23940976608148742 25 1193 27 792 32 1700
22653 -1.7553025874182859 4.3924515033255016 1.4886696247280626 234 230 221 0.37534348848424542 25 1185 27 798 32 809
22655 -1.4749361610607394 3.7604867421872847 1.8680132025641409 184 180 171 0.42645364173375006 25 495 27 813 32 1416
22656 -2.0141524624170879 2.972491067461374 2.6152100403860525 137 131 154 0.43838405663150759 25 3523 27 816
22658 -1.2013391753121327 3.8369283196737842 1.854612707850108 163 159 150 0.67095865843678382 25 1981 27 824 32 4540
22661 -0.78261980129269448 3.5246050652193444 2.1222716029849922 206 202 193 0.42864241973127565 25 1141 27 840 32 1101
22662 -0.59068145136587979 3.4552124273557756 2.094596051463844 208 204 195 1.0834202325935332 25 3701 27 841 32 438
22663 -0.76067541333366251 3.3007786026357859 2.3476352206314166 161 157 147 1.0572630366479188 25 1136 27 843 32 220 23 6
22664 -0.89210963987226366 3.0295893903978222 2.5459026290443481 214 209 206 0.47479766419796166 25 754 27 844 32 444
22665 -0.58372690472548949 3.3058777352309061 2.2885072055365634 206 202 193 0.72992195044162 25 1130 27 849 32 859
22666 -1.9878805355095321 1.2601585681021652 4.0777390898153509 237 236 227 0.90832108373251297 25 236 27 855 32 900
22667 -0.29009218021438576 2.9954521063266366 2.4930301449378329 227 223 212 0.50437406547974195 25 753 27 859 32 1847 23 4493
22668 -0.61555560828363776 2.6882763979438624 2.8755281171522533 177 173 164 0.55146751965953411 25 2066 27 863 32 881
22669 -1.6414848268392077 1.136535589978551 4.1228133610699063 208 209 194 1.1110100824097726 25 2035 27 870 32 1929 23 4784
22670 -0.23725094675906169 2.7464813255449796 2.712944962652251 157 152 148 1.018593501066644 25 2093 27 874 32 1876 23 859
22671 -0.1240151155485483 2.8656770084225114 2.6022209065724535 202 197 191 1.4104376232646758 25 1096 27 875 32 885 23 4531
22672 -1.3312707589217829 0.835456570667649 4.3344307354212175 156 154 157 0.78297352736908321 25 3821 27 898 32 931 23 4932
22673 -1.291241468396366 0.80197267458188626 4.3725483850832356 231 229 230 0.50508380102579042 25 1103 27 901 32 485 23 469
22674 0.042035741986056398 1.8746604973334262 3.4048774975877736 216 211 205 0.30598409147950184 25 1063 27 915 32 1987
22675 -0.94297209379282698 0.69907316636533745 4.3983201348729244 196 197 183 1.0746176937614327 25 2118 27 916 32 496 23 5050 28 5160 31 5344
22676 1.0608839867087645 2.4306595309679344 2.9051818470827713 158 153 149 0.60064836040220249 25 1011 27 945 32 938 23 915
22678 -0.55380995672028344 0.54872891589761508 4.5605367200917337 168 162 164 1.1379782956879043 25 2181 27 957 32 1006 23 992
22680 1.3238299702787215 2.5587763851254155 2.8647846817869018 230 226 217 0.53123415340077329 25 5424 27 972 32 2038
22681 -0.32456412458328365 0.48951234837134477 4.5780962798023221 142 137 136 0.32153585425121112 25 1391 27 980 32 1032 23 677 28 556
22682 0.48283498192899438 1.2340532555231012 3.9491542172222909 204 199 195 1.1511411180171687 25 5507 27 995 32 1010
22683 -0.29592828591753029 0.30142315913728507 4.7103108135541429 178 167 165 0.91299294092628969 25 2231 27 997 32 256 23 643 28 295 31 572 26 2857
22684 0.093334246223717943 0.61480873808238978 4.3779511909832056 99 88 96 2.4200524984881593 25 5565 27 998 32 5567 23 5314
22685 0.039737478298422994 0.52277780420932018 4.480370190568995 150 145 139 0.90273192764453292 25 5556 27 1003 32 2154
22686 -0.23162699344758722 0.198247346387143 4.7992100414603964 135 127 125 1.1918857036309325 21 811 27 1011 32 266 23 264 28 305 31 317 26 276 22 640 29 698 24 3390 33 2357
22687 0.061535138652239543 0.27960571337877688 4.7054988618621181 175 165 164 0.73027011371238348 25 996 27 1034 32 2253 23 2185 28 2414 31 1977 26 800 22 1339
22688 0.98441798114801893 1.0262893358598972 4.0385844032033047 213 208 204 0.42025553906060759 25 937 27 1054 32 1379
22689 0.31961928181194965 0.32014886554691147 4.6738004118716505 188 185 176 0.42357674898481479 25 5342 27 1060 32 641
22690 0.5019213070834958 0.4386040834866447 4.5319074004295059 212 203 197 1.2016259886784622 25 2384 27 1063 32 1126 23 2188 28 2392 31 4492 26 1823
22691 0.35509051309399597 0.13160813236784544 4.8412190996504876 219 214 210 1.4519409587196748 27 1089 32 620 23 1148 28 830 31 190 26 280
22692 -0.72579785075929182 3.8104551228178289 1.85480793320482 207 203 194 2.0552723937029351 25 3661 27 1097 32 1779
22693 0.73101595342019277 0.39449563927920145 4.5924551666261628 190 181 174 0.2741453957010348 25 2438 27 1101 32 1159 23 1129 28 2441
22694 0.86772207838915649 0.42668320475835453 4.5543702156021908 217 213 204 1.5564100306304329 25 2468 27 1118 32 181
22695 0.62951731804730526 0.090265452451413153 4.8333583072660158 116 111 107 0.26391970057402725 25 2458 27 1134 32 1223 23 1178 28 1396 31 2288 26 3773 22 3694 29 2146 24 2558
22696 1.4015666589167084 0.82667993272719509 4.2166517461899593 178 173 169 1.6970841839498165 25 4778 27 1152 32 1170 23 2845 28 4113 31 4172 26 2419 22 2174 29 1092
22697 0.79116011016825361 0.10720031960220336 4.80868839539992 108 103 99 0.42840316289108671 25 4651 27 1161 32 2469 23 2378 28 1413
22698 0.74095407252791012 0.032586100997590815 4.8981747646192888 227 222 218 0.39983245931499251 25 880 27 1171 32 1255
22699 1.9108530690908547 1.1523788107623478 3.9198153255969412 136 131 128 0.41162546953084106 25 747 27 1183 32 1175
22700 1.7117514255616186 0.86068848083447247 4.1205766806061153 217 212 208 1.1761504320399125 25 4988 27 1195 23 2246 28 3889
22701 1.4677307078702646 0.57340720411171264 4.4129228280247306 237 227 225 0.54742660919489194 25 811 27 1210 32 2461
22702 1.2100459079263937 0.29218938644021686 4.6341200308600614 167 157 148 0.4089482770607939 25 2579 27 1211 32 354 23 1186
22703 1.8335552078635808 0.84869179300963737 4.1502453908578341 233 228 222 0.67965118039396688 25 742 27 1230 32 2590 23 2275 28 4621
22704 1.5534710924267814 0.53255781356040854 4.41009786123462 205 196 191 1.3585379989999797 25 5139 27 1232 32 3415 23 3111
22705 1.1386794076816957 0.10154613897316314 4.7990134760213392 113 114 109 0.44243709623818739 25 1383 27 1239 32 2562 23 3370 28 4318 31 5082
22706 1.1879013561014606 0.11899679636753194 4.7862125548022618 181 182 177 0.67280922206543636 25 813 27 1252 32 2572 23 1220
22707 2.0670961982870422 1.0109378406414562 4.0188567714635113 192 187 184 0.46464089428157312 25 2717 27 1255 32 3315
22708 1.1364341643314297 0.050162344243849709 4.8402672265116085 215 214 210 0.47726248749117905 25 661 27 1257 32 1303 23 1233 28 752 31 2119
22709 1.1464192102887654 -0.06166616348138787 4.9245229077757795 250 248 236 0.63330881250273385 25 2628 27 1275 32 1336 23 5471 28 714 31 2176 26 3843
22710 1.1927763384564196 -0.029645180205509283 4.8894869745902163 210 208 198 0.77929570758028932 25 795 27 1278 32 560 23 583
22711 1.2451433608602087 0.00016327525973428616 4.8589166800298482 245 240 237 0.36982686521079727 25 790 27 1279 32 559
22712 1.5303540533548978 0.27395764013419005 4.6332932554095683 232 229 222 0.60001274925722525 25 767 27 1287 32 545 23 1218 28 1436 31 4899
22713 1.4308526233141159 0.12128222258810957 4.7171376558182123 157 154 151 0.72962887213201333 25 2673 27 1288 32 156
22714 1.2361428398118968 -0.034566609565396665 4.9003003220725336 238 234 231 0.55421441050802411 25 2654 27 1289 32 1351 23 1274 28 713 31 2161 26 1950 22 4600
22715 1.3421185225494721 0.033179160931693055 4.8351048503354352 136 128 126 0.64217997322746234 25 2672 27 1298 32 1348 23 1262 28 727 31 2133
22716 1.8737057089434397 0.48459592143740821 4.428636119175116 215 205 203 1.2285292989625642 25 1453 27 1308 32 5855
22717 0.70577905084065673 0.85598699217095442 4.2114203141512956 237 232 226 1.0697108964926123 25 2382 27 1333 32 1378 23 1039 28 966 31 4095 26 2431 29 1420
22718 1.6343314788349155 0.86860165306001158 4.1512369749273264 183 178 172 0.3105797636244792 25 2604 27 1339 32 1192
22719 1.67278883128907 0.25431674398781168 4.6392654016336543 229 222 215 0.69462733967877188 25 2744 27 1349 32 2645 23 3446 28 772
24102 1.8957146703501067 0.66428488578961831 4.2658722691688853 153 148 144 1.5204008189802116 32 3467 23 3113 28 3895 31 4295 26 1741
22720 -8.6414910831386678 7.2271124870672523 -0.37023461894362492 175 171 162 0.74864833217978966 25 1341 27 1359 32 3833
22722 -7.230994172601231 4.7720424107336354 1.3098983880371833 162 157 154 0.64456503044951585 25 421 27 1378 32 1405
22724 -6.56661132201992 5.9946069182830541 0.37127409304156112 199 195 186 1.3365482566473172 25 1734 27 1384 32 3908 23 1336
22725 -5.4313935340502981 6.6578931783714399 -0.32414508200077363 163 159 150 0.4675079500567772 25 1284 27 1392 32 1574 23 3739
24101 0.28466754083651191 -0.005384044080844262 4.9316747684998754 230 220 218 0.21584315590524175 32 3200 23 3096 28 4164
22727 -5.6815070841177056 6.113885526313509 0.29278232947556931 197 193 184 0.91910874998856207 25 439 27 1399 32 719
24110 0.69219142047834048 0.066322224145040118 4.8181270536637788 229 224 220 1.2033628047006597 32 3329 23 3167 28 4174
22728 -0.19643231419428409 -0.72410428107615221 1.9275172232099378 179 174 171 1.1749808619810393 30 396 27 1411
22729 -5.6219788050031516 6.6961985934687238 -0.25847937020894213 152 148 139 1.0127015585344574 25 3017 27 1429 32 3920 23 1499
24109 1.3581623789270509 0.39619767772930409 4.5492199221373468 221 218 214 0.32258124833208646 32 3432 23 3162 28 5402
22735 -5.9556355489978916 6.2445603621637362 0.045921118239587562 199 195 186 0.60166266651208578 25 1754 27 1464 32 1452
24118 0.66289936389256199 0.058163005630228498 4.9047581198680641 156 151 147 0.91178217739246115 32 3366 23 3234 28 338
22736 -8.5873366030085894 7.725508724145504 -1.0832418753637494 205 201 192 0.56486182066776425 25 1352 27 1466
22739 -8.1842727058803408 5.6714744047261894 0.65799929774608013 204 199 195 0.79741752219021189 25 1333 27 1480 32 1399
22740 -4.9524059778348253 6.3150824781494528 0.061171869108451328 208 204 195 0.76346299614314672 25 3079 27 1485 32 3977 23 3770
24117 1.8031521880175374 0.5327909520638312 4.4095951588299132 253 247 244 0.89829550716544904 32 3557 23 3228 28 4030 31 4665 26 2540
22743 -5.8802136011691708 6.0497291515506193 0.27472829655766839 201 197 188 1.1245940711423419 25 3013 27 1499 32 3934 23 1344
24126 0.95235399370619322 0.12141855024259988 4.8119338698763565 170 167 160 0.83805895978397504 32 2526 23 3274 28 4246 31 2083
22744 -5.5566245616604162 4.969280989961427 1.0965246951284238 206 202 192 0.92607496489251151 25 3045 27 1502 32 725
22748 -0.30937956130242333 -0.90014080572826083 2.1811763175684025 95 78 161 0.16964620922072166 23 355 32 4166
22750 -5.1037909977615268 6.7963233825486471 -0.44514395635067866 198 194 185 0.8410711793512281 25 3034 27 1558 32 3929
24125 0.2863844406987856 -0.15509050058498158 5.080710842616825 237 228 225 0.18312514976160021 32 3337 23 3271 28 4375
22751 -6.0246173282907822 6.011212145790628 0.30688861271984869 205 201 192 0.35395829838457765 25 1286 27 1562 32 1542
22752 -6.5287869642272289 6.1302941451827078 0.19923551784547286 172 168 159 0.31103043122112595 25 1731 27 1569 32 3901
