# 3D point list with one line of data per point:
#   POINT3D_ID, X, Y, Z, R, G, B, ERROR, TRACK[] as (IMAGE_ID, POINT2D_IDX)
# Number of points: 385, mean track length: 3.4022894521668028
77 -3.2149711047782246 0.015100333314636128 2.9730551515493069 34 15 1 1.3473924504870984 1 432 8 441 12 435 11 426 10 725 16 679 16 1368 7 770 6 692 6 860 14 744 13 1203
469 -3.4490423139499584 0.077098634925422641 2.9965465605912516 19 18 16 0.65086143486917958 1 509 11 529 12 511 10 552 7 791 6 980
78 -3.2506958092772003 0.014707350603508054 2.9778052379789681 62 23 4 0.25884550045638388 1 433 8 440 12 436 11 427 10 446 16 832 7 854 6 753 14 743 13 1202
1529 -3.2906499062800108 0.10145171472863977 3.021575418190293 43 42 40 1.8287884002022696 7 1312 14 631
79 -3.250876490942022 0.012116645084059005 2.9774752373942381 61 20 3 0.11485019945912772 1 435 8 435 12 438 11 429 10 447 16 673
479 -3.3794865850358708 0.085179954228579588 2.971914589069975 53 55 52 0.15061152887206339 1 971 8 713 11 974 12 979 10 574
1853 -2.0239768585773663 0.070140535798321316 3.3003447412975917 92 90 95 0.54531170414468211 14 49 9 85
801 -3.0950131021952192 -0.019839622546035569 3.3108370703469485 32 32 32 0.45959059429708887 8 390 16 386 7 320
960 -3.1921230074905749 -0.009112088699269251 2.9802475254090655 253 253 253 2.2621105631085903 16 52 7 41 6 65 14 87
81 -3.203588307148336 0.0072066812273627193 2.9714429162233849 52 8 0 0.47869966764122052 1 440 8 795 12 443 11 435 10 680 16 801 7 846 6 748
1318 -2.6983807126618888 -0.044297565940857313 3.0321714058280276 37 33 32 2.4235958604959973 7 805 6 709 13 852 15 988
473 -3.4954244646976749 0.082258750257618793 2.9719009601374857 36 38 37 0.28476216102176183 1 952 12 961 10 559 6 1011
1198 -2.2384804027403709 -0.037370416694462498 3.7822683761026403 254 186 0 0.6490749341449269 7 6 6 16
82 -3.2664160741518633 0.002963145057710712 2.987848132042644 38 18 17 0.50548192720070251 1 444 8 427 12 447 11 440 10 454 16 657 7 532 6 509 14 1322
1827 -2.2121809443934999 0.047008532339675321 3.133294244101378 34 34 34 2.1489424021074814 14 45 15 21
83 -2.7194888103672894 -0.045179022711089957 3.0283445529683477 42 42 42 0.22118535130478612 1 460 8 564 12 462 11 461 10 478
1986 -4.1396166815571114 -0.0079318751963171653 4.175162390852643 126 126 118 1.9208129370311426 15 287 3 307
467 -2.1968503433690283 0.071283627771028216 2.9500987461239538 124 122 123 0.15714546040845073 1 503 11 889 12 505 10 544
805 -2.3880782145103829 0.058573488170849355 2.9481513698428414 41 41 40 0.6271385711786962 8 348 16 426 7 348
84 -2.1649475071923208 -0.047157554106041395 2.998883425987124 38 36 37 0.093531386475004738 1 462 8 344 12 464 11 463 10 481 16 475
85 -2.1762652513280738 0.070683714919115653 2.9460789536686907 25 23 24 0.36587584140697454 1 502 8 1225 12 504 11 879 10 982 16 1394
2867 -3.4118581832288997 0.1390274341884504 3.709820965623106 206 200 202 0.26076583957729615 18 263 19 223
477 -2.2136344970144859 0.082779727606528852 2.9266260824889403 229 227 228 0.46708904859538503 1 960 8 1283 11 545 12 968 10 570
86 -2.1640941008383687 0.073937498901953419 2.9315517664433117 53 51 52 1.0245344231366544 1 506 8 702 12 508 11 528 10 548 7 927
809 -2.3683686287605692 0.079251505517338325 2.976032031084439 47 47 47 2.5733367475229576 8 499 16 479
89 -2.1545874877094549 0.085146026106703548 2.9250042800528795 29 27 28 1.2079090225579416 1 523 8 720 12 526 11 550 10 1063
90 -2.2126426493184881 0.1266738365364127 2.925516866826932 246 241 245 0.2629066201927891 1 557 8 953 12 560
91 -2.1553459183294019 0.13530435949393924 2.9169247918271184 255 249 254 0.34412996278390223 1 567 8 979 12 570 11 593 10 618
1994 -3.4692197955192809 0.10927869961116343 2.9762291839673951 207 205 206 1.6034558362481477 15 461 3 359
475 -2.2741528618366491 0.082157762171301024 2.9217432093158773 253 251 252 0.10992167991822675 1 516 11 544 12 518 10 567
813 -3.0684320420506954 -0.0018146515607298803 3.0309204007330091 196 192 189 0.52559693368236027 8 391 16 505 7 537 6 550
92 -2.6863988867494664 -0.041538927596411798 3.0229301550080829 36 39 40 0.24152828505723659 1 584 8 571 12 601 11 629 10 731
1487 -1.932994067114133 0.037398883134085598 3.4117915474632889 17 13 5 0.7610310436316613 6 258 14 259 13 241 15 356 3 190 9 363
972 -1.9826694524168542 -0.00051452059137795526 3.5759996037045041 193 197 197 1.5792460251810778 7 96 6 116 14 117 13 114
93 -2.1078329237203799 -0.050049651777842867 2.9943031214086764 43 43 43 0.17220208336655168 1 593 8 400 12 594 11 464 10 482
1324 -2.3115845150411363 -0.020572048729373658 3.6443128980210648 59 43 20 0.78985908715413222 8 415 14 496 13 643 15 1019
495 -3.2751933284288839 0.0078610934383984629 2.9927335536513766 242 169 12 1.3536919514514134 12 74 10 625 1 74 16 773
1148 -2.1758880273743739 0.10982593253251824 3.5927897496679155 29 25 26 0.19191974049051502 16 1529 7 1327
96 -2.749274443241903 -0.047881148459106342 3.0103624002381939 45 41 42 0.63191299042983928 1 596 8 544 12 597 11 624 10 516 6 839 14 833 13 849
912 -2.1672662923154142 0.08318432548551076 2.9169304308145243 21 19 22 0.30718925980163242 10 1053 16 1486
489 -2.1966948974335327 0.12775178762312189 2.9176639007190266 210 205 209 0.48737613151442521 1 798 12 803 10 613
98 -2.1977986212387615 -0.043478284266561626 2.9972363008126961 36 34 35 0.54736372185363136 1 599 8 554 12 600 11 627 10 643 16 762 7 800 6 707 13 840 15 978
99 -2.722188040643617 -0.041752827417225816 3.0159784142692923 27 27 27 0.78659209185215084 1 600 8 406 12 586 11 628 10 644 6 711 14 705
1938 -1.9417700715738333 0.027142268000032624 3.2478688803411204 66 63 57 0.33941402663254727 13 1176 15 1226 3 638 9 1133
2491 -2.9273600069547348 0.080962938453726097 3.3217697115742437 23 22 20 1.6723045046837219 15 1 9 1
1032 -2.0877362368488508 0.027039636076330472 2.9320766504761737 223 165 54 1.4882518287724558 10 1206 7 514 15 558
483 -3.0834319690616394 0.11875164589100801 2.8876046132147919 227 225 226 0.097008555486933101 1 86 12 86 10 590
100 -3.0850362562040439 -0.039236278667550223 3.0261608510361229 253 252 249 1.4824524681045668 1 601 8 1025 12 602 10 737 16 617 7 959 6 715 14 848 13 673 15 1004 3 1115
1431 -3.646632646246474 0.018955883992664353 3.0184230124078422 31 29 31 0.53306310993242068 7 1475 6 1333
916 -3.3262656593425954 0.11010067867260455 3.7458883665600244 247 247 247 1.1006292886565592 16 1517 7 701
101 -3.1834202299014458 0.0022665020003909382 2.978563750181793 109 36 2 0.1989594727559659 1 626 8 576 12 626 11 661 10 673 16 656 7 840 6 744 14 732
102 -2.3414536178181224 0.0042629103571910328 2.943747216812 121 48 1 0.32367840676102272 1 629 8 561 12 629 11 663 10 675 16 654 7 769 6 740 14 482 13 592 15 534
1425 -1.9337919949787943 0.035088301871682215 3.3243019889739704 67 67 69 1.2572617725728525 7 1453 6 1316 14 1247 13 729 9 827
103 -3.210791975257532 0.0083344782903064119 2.9715807017092475 236 176 88 0.21588749788632311 1 630 8 1138 12 630 11 665 10 820 16 1343 7 1501 6 1057 14 1308
1092 -2.3880322667817797 0.027637136721236855 2.9374538862616348 133 66 1 1.9008723583690499 16 998 7 872 6 1323
503 -2.3885587675657174 -0.033297781093495737 2.9833098478161948 242 179 28 1.2487884450163278 1 455 11 456 12 457 10 647 7 810
104 -3.2440454743841318 0.0085898013896054254 2.9825078158591536 227 204 157 0.21030443958409664 1 631 8 1140 12 631 11 594 10 821 16 1345 7 1500 6 1034 14 1305 13 1216
920 -3.2574348180611796 0.12085715837275743 3.731173735949858 253 252 250 0.90353839699281346 10 1107 16 1541
1094 -3.6977068549640428 0.037629692437771513 3.2086743403224456 244 242 244 0.58718499001380264 16 1012 7 875 6 775
497 -3.3287399429578644 0.10961480820222951 3.0172175631434284 208 203 207 0.50728515253838002 1 322 12 325 10 627
106 -3.2690760036394106 0.018920604854024772 2.9773392123061773 169 122 68 0.54612512526486645 1 637 8 620 12 637 11 669 10 687 16 813 6 760 14 1274 13 1188
107 -2.0540705473025613 0.04247638921213185 2.932411176582169 112 114 111 0.26064707630687611 1 653 12 653 11 678 10 632 8 804
1040 -2.0621860901567159 -0.0045519328102638004 2.8524126373968204 255 250 249 1.0571103506979072 10 460 13 456
491 -1.9692531553038481 0.13536404912210065 2.8980411978479177 222 217 217 1.6398609987933166 1 291 12 291 10 619 11 267
1439 -3.2519995032726996 0.0083812082761001994 2.9797584266419719 70 36 2 2.3897774095638509 1 439 8 431 12 441 11 434 10 453 16 669 11 431 10 449 7 526 6 505 16 666 7 527
924 -2.2823322811480011 0.10673223908859265 2.9143957353338714 213 211 212 2.0837827087044949 8 1373 16 1564 6 655
109 -2.1418239939932793 0.049107344287123149 2.9651018677426801 42 38 39 1.8186763518857461 1 664 8 657 12 664 11 689 10 1170 11 690
501 -2.1857188499037714 -0.048145210704710097 3.0228714610409386 254 253 251 0.79858657712238745 8 247 10 641 16 608 7 643
110 -2.2354113266557389 0.053943075890762783 2.9264113202985809 59 57 58 0.1864772020014846 1 670 8 667 12 670 11 498 10 1162
1433 -3.2964238586908583 0.016454424723178554 2.9627802021609102 202 138 31 0.08291195697229288 7 1479 6 1336 14 1281
111 -2.7506348872843001 0.060069632141898109 2.9724071796858831 224 154 41 0.85914586480232658 1 676 8 856 12 676 11 1102 10 1130 16 1086 7 1379 6 801 14 1050 13 936 15 751
1100 -2.2842334500106953 0.068389992194186164 2.9554650597284851 8 8 6 0.31157521842976521 11 976 7 918 6 1181 1 500 12 502
511 -3.0884510820697262 -0.0032854881895310641 2.9645000118435307 65 25 4 1.1885683147236887 1 737 12 738 10 669
112 -2.1721069281254013 0.061677311059269033 2.9257139139201787 18 16 17 0.12607597685529526 1 678 8 679 12 678 11 1091 10 532
505 -2.008716845553816 -0.033707017820189013 2.9482344153524105 242 190 3 1.3028453244566622 12 606 10 649 1 605
1102 -2.1399364576520261 0.084189736098145174 3.4255546875663399 89 89 89 0.15732322835215706 16 904 7 932 6 1024
114 -2.1618511254720283 -0.045160692101895647 2.9957838049486298 94 90 91 0.46915337967609377 1 685 8 1012 12 686 11 700 10 726 16 760
115 -2.6940366912916547 -0.044111761166383275 3.0306411266469135 48 48 48 0.1591437307439382 1 687 8 1015 12 688 11 702
2018 -1.9172565325686026 0.064803745323522677 3.4903842572823414 30 28 31 1.5091016143532061 15 759 3 671 9 572
2443 -3.0424271513291452 -0.0032385651117294179 3.7121720775967089 233 174 53 1.9770708242166417 17 703 9 1022 19 573
1048 -3.4750210989927401 0.10237151301803236 2.9812008233906182 28 28 28 1.5019266461847725 16 557 7 608 6 571 14 283 13 371 3 355
499 -2.3419040099441393 -0.028491453127555626 3.0434738399502823 114 94 75 0.38072431264560558 1 700 11 720 12 701 10 634
116 -2.375700415004482 -0.03721489868521282 2.9908610131485109 237 191 102 0.63758604577659383 1 691 8 1023 12 692 16 775 7 562 6 590 14 706 13 670 15 992
1511 -1.9264964419107946 0.037767781588680265 3.5490158718964815 237 167 32 1.3391789322323091 14 458 13 576 15 305 9 240 18 374
117 -2.7539163050106392 -0.03537318186571102 3.0041867320172417 113 54 2 0.14207530991365119 1 693 8 1028 12 694 11 714 10 740
1050 -3.2924851441429999 0.098022447210246347 2.9765041279082416 67 65 66 0.47929546850905319 16 932 7 614 6 574
509 -2.3070014919244652 -0.0055182510385017331 2.9611361086723158 135 102 40 0.24748711460196096 11 753 10 667 13 1251
118 -3.2443265944619619 0.013426593805350859 2.9794017925340182 221 208 138 0.17990051430282894 1 708 8 1154 12 708 11 857 10 890 16 1361 7 1490 6 883
119 -2.0225884286018343 -0.0079178507361758067 2.9431938441568146 178 173 171 0.077206705675837997 1 724 8 417 12 725 11 923 16 514
455 -3.464570801114486 0.10183216845614558 2.9565906301402345 30 30 28 0.7003884320701681 1 283 12 283 10 512 11 178
1829 -1.9542241850177089 0.07604559821741283 3.6603049237801892 253 253 253 0.13927221714319921 16 263 3 38
120 -2.3352818995773714 -0.00095220790622977205 2.9535192756651831 253 187 66 0.29160168009721571 1 741 8 606 12 742 11 766 10 791 16 815 7 830 6 735 14 485 13 452 3 610
1000 -1.9308648297873146 0.013658704035168471 3.5418873680757383 222 152 4 1.1548345763913503 6 283 14 192 13 115
121 -2.7885737287964036 0.00025453769986509447 2.9745685377380515 254 211 90 0.71769312652845019 1 745 8 1104 12 746 11 770 10 798
2855 -2.1828552915165575 0.063845229477675722 3.6880901477937962 14 13 11 0.34963366066586993 18 178 19 144
449 -2.7634121875010984 0.1337079206833495 3.2183441424422816 253 247 249 0.67481596235160379 8 536 11 471 10 497 12 472
122 -3.0858089077866175 0.0027005698193638909 2.9379504030069112 197 138 51 0.87505163009722542 1 751 8 1110 12 752
123 -2.3362386511698774 0.0031778529203032543 2.9474538446302407 236 164 40 0.50666650532343227 1 752 8 1107 12 753 11 778 10 805 16 844 7 976 13 706 15 1071 3 614
507 -2.1026071142825402 -0.030117668404973312 3.0478520412888583 254 254 249 1.3484436563301432 11 636 1 181 12 181 6 522
124 -2.3376425071147966 0.00545866970585231 2.9452918361851581 253 195 62 0.46331412499166519 1 755 8 1123 12 756 10 810 16 824 7 1520 6 920 14 1328 13 1230 15 1079
1004 -1.9508568450200066 0.014943140801393036 3.0021894259605078 67 5 0 1.4754564270628328 8 436 7 310 6 188
125 -3.2428274071290719 0.0061459018828894608 2.9836635986541942 205 195 139 0.23575725076907131 1 759 8 1128 12 760 10 814 16 1334 7 1508 6 931 14 1314
453 -2.2041590191901679 0.10371422177884176 2.9315373989700748 28 26 27 0.17808023919341531 11 1027 10 509
126 -2.6141985496629032 0.066638811065464862 0.56941855878166459 209 203 205 0.15349060612776577 1 813 8 947 12 817
1513 -1.9564545449454951 0.016665814888662492 3.0039187181345883 201 123 58 1.2689309953764607 6 752 14 472 13 421 15 455 3 513
127 -3.2443083647762365 0.010952291723445648 2.9811226537851288 246 211 145 0.18301621769909732 1 823 8 1147 12 827 11 797 10 940 16 1355 7 1496 6 921 14 1294
785 -1.9879315587156898 0.087994839009313958 3.6105125714113773 69 69 67 0.50710691609870895 8 232 7 246 10 281 16 271
128 -2.1623871856680381 0.13502419851125091 2.9222392550734342 209 199 205 0.25324707656234535 1 830 8 977 12 834 11 842 10 900
314 -2.8181555025893665 -0.023608789777872778 3.0085116925087592 61 34 15 0.46349703226598021 1 67 8 53 11 71 12 67 10 59
129 -2.2727426473212198 0.13702207597405378 2.9437348802263754 217 211 213 0.83138901622627193 1 833 8 978 12 837 11 848 16 1182 7 761
1302 -2.3688745432447815 0.087429001328035577 2.9279226753489653 253 249 250 0.38744925612638903 7 1273 6 624
130 -2.2999911328790845 0.13728759462455212 2.926435220568254 216 210 212 0.38208110376989179 1 837 8 980 12 841 11 850 10 908 16 1181 14 1020 13 913 15 957
260 -2.2224744386870174 0.043827977121840229 3.15756919755751 47 45 46 0.72937685960099552 8 456 11 411
1207 -3.3612375617439465 0.13084689586146236 3.8543671816427887 195 189 191 0.81266035666368186 7 48 13 45
131 -2.4374039426815424 0.062544041416523671 2.9470552492172368 206 169 128 0.31443083624313128 1 870 8 882 12 877 11 1087
789 -2.2066902346425676 0.12528699806747909 2.9388687192451592 232 227 231 1.3925836597992907 8 158 16 287 7 299 6 536
132 -2.1728957305375025 0.063457578537208209 2.9333403944090715 206 204 205 0.84817069172976256 1 871 8 1004 12 878 11 1086 10 944
1193 -3.4315144622740519 -0.010477220721057997 3.0136954898166257 253 253 253 1.1113549311895308 8 2 6 4
2008 -3.8453528020796308 -0.033464525268094784 3.7454705053125172 235 236 238 1.3951953762594482 14 865 3 557
134 -3.4801399951241829 0.068429396502388495 2.9752925207859007 228 227 225 0.57436132934129358 1 888 8 690 12 896 6 818 14 1071 13 957
793 -3.630830021913984 0.067441281447369647 3.0703336750281531 247 247 247 1.9093836878807355 8 227 16 329
136 -2.3070462466224875 0.070413378669788848 2.9264168729253308 210 208 209 0.23944885579256919 1 897 8 694 12 905 11 886 10 543 16 898 14 797 13 785
258 -3.6341966573431361 0.019696326270520374 3.0555484347430308 50 48 51 0.11991705451147378 1 350 8 318 12 355 11 341
137 -3.0973449097721732 0.0097698634482960081 2.94905714301398 67 63 60 0.30697667765954451 1 899 8 1144 12 904 11 791 10 957
1310 -2.0468591315432629 0.12968536615514553 3.6659699842970155 253 251 252 0.26476414860541697 7 1037 6 665 14 660 13 882
138 -3.2581037569867606 0.0094598405520733009 2.9749242208403399 244 188 77 0.16117561714724485 1 904 8 1143 12 907 11 787 10 969
1819 -3.0691714999353588 -0.018672445086762808 2.9631675759821516 255 247 236 0.27448935287703374 12 709 13 1289
1215 -2.013365434568799 0.080214000972234689 3.6715933994039354 254 252 253 2.0242255937526559 7 87 6 78 16 106
139 -2.3056561346507118 0.072374426252674609 2.9259792673395264 216 214 215 0.51275605008528236 1 906 8 699 12 914 11 899 10 990 14 1132 15 1189
797 -3.4612189690648956 0.11041835356326024 2.9947807931869912 207 203 204 1.6332794770595391 16 353 7 309 14 639 10 207
140 -2.1601596992516727 0.075433931668844129 2.9260096362707415 244 242 243 0.15351204491406131 1 918 8 1239 12 926 11 907 10 1007
262 -3.2955849720236721 0.025859596393267771 2.9668743354285887 38 15 0 1.1199257850838393 1 262 8 547 12 262 11 422 16 1552 10 144 7 509
141 -3.289263434541525 0.044308210824394879 2.9765646831926373 17 15 16 0.2395103365021638 1 932 8 647 12 936 16 857
142 -2.2520611664981884 0.079400180021492059 2.9380764578490743 248 246 247 0.10424785266457708 1 935 8 711 12 945
256 -3.2622364672309181 0.0053751979223590788 2.9800431930660696 246 193 65 0.85643654544719938 1 348 8 258 12 352 11 338 10 284 16 661 7 529 6 1030 14 1320
143 -2.2157251267868312 0.084643511988037115 2.9206662271255248 90 88 89 0.17528255324643685 1 972 8 1292 12 980 11 615 10 1067
865 -3.3970851946494349 0.14198964370877085 3.0090620865571744 225 219 223 0.46136091432907045 8 1191 16 970
144 -2.2256715353172138 0.058617346386230895 2.9392165775732746 55 53 54 0.18498616635353596 1 1045 8 852 12 1046 11 1112 10 1139 16 1082
266 -2.5446213651959586 0.131405425432393 3.3228796835831838 255 244 248 0.25345717313465599 8 916 11 619 16 1123
145 -2.2255655655432141 0.05272238283877969 2.7554233364293221 78 76 77 1.3753065717263819 1 1058 8 832 12 1060 11 1126
1382 -3.1313484616463256 0.084484407613120385 3.0013911071334469 241 241 241 1.0689472239037341 10 1049 13 1019
1891 -3.3125159672538462 0.068770734618758184 2.9586244642013013 53 51 54 0.52060549140882473 13 219 15 591
1159 -1.927364460958702 0.055574276774019916 3.0230685720224195 99 99 99 0.15534584836061324 16 1062 7 1393 6 1271
147 -2.4505434653498894 0.053261340095582442 2.948804219449026 244 175 38 0.28420994068131777 1 1062 8 827 12 1064 11 1130
869 -3.236060822742024 0.036798023952164978 2.9699272068350133 255 221 90 1.1933597200881911 1 1096 10 1252 12 1098 16 1019 14 1236 15 862
148 -2.4578474573747586 0.053398928928108547 2.9337275480997906 118 40 0 2.0501834793731053 1 1063 8 831 12 1065 10 1166 7 1397 6 1277
270 -2.7970615604460165 -0.041255645845748437 3.0178047096858132 27 27 27 0.52920180627292857 8 1019 11 706 10 732 13 861 16 517
149 -2.4125002598318033 0.038192210817081164 2.9397055526698566 129 51 1 0.94091379685119669 1 1092 8 800 12 1094 11 1151 10 1192 16 1217 16 1029 6 778 7 879 14 757 14 1234 13 737
150 -3.1874607594081037 0.037718294747614373 2.9716295886248525 115 50 0 1.2586326767679434 1 1093 8 798 12 1095 11 1153 16 1022 16 1026 7 1434
264 -2.3829907230951415 0.089134340727258801 3.0129980044571254 32 30 31 0.83757726773263652 8 1301 11 555
151 -3.4568637276158185 0.037793144901602127 2.9783257766603541 41 40 38 0.4238428261727476 1 1095 8 799 12 1097 10 998
1380 -2.0341646503360682 0.08595250454864227 3.6669802809140362 247 247 247 0.25195283708624955 7 1195 6 1014 14 1133
873 -2.3776901578073013 0.04455567320153362 2.9381458625686019 159 108 35 1.1725788883996877 8 809 16 1039 7 1418
152 -3.234785286902055 0.034692023313001835 2.9725699395370242 230 168 21 0.70932146208483449 1 1107 8 1316 12 1109 16 1007 15 1288
274 -3.1545349208477167 0.0076570258820784828 2.9328320631939011 255 197 67 1.5700909580938887 8 1142 11 785 10 681 1 761 12 762
153 -3.4815194660234043 0.021542648433836145 2.9160357019584264 254 193 41 0.051089237860433505 1 1124 8 1178 12 1126
1390 -3.4706650815864384 0.10182102011657874 3.6375596233013372 0 0 0 0.78029456905658456 7 1257 16 1497
284 -2.4623263380787406 0.06438426628062846 2.8878466477501918 222 178 141 1.7414709607317649 8 1204 11 1084
1167 -3.6333861359953996 0.037425975921551315 3.0183244337236173 32 30 25 0.11834922073990126 16 1018 7 1438
155 -3.2023274860237319 0.013425722082239076 2.9692427483032957 61 10 3 0.32540012144849745 1 1135 8 1155 12 1137 11 838 10 830 16 1363 7 1489
877 -3.3914845792160087 0.054491679563510857 2.9726855728588339 83 83 83 0.049103050453843555 8 828 16 1054
156 -3.437605458062341 0.0035849745748277929 2.9379886636635502 255 251 237 1.4306960132257884 1 1137 8 1002 12 1139 10 1232
278 -2.3534370612844109 0.095842603301387039 2.9446973523471547 249 248 249 0.30287325312147373 8 286 11 1004
1153 -3.4661335731259535 0.11215100325015248 2.9155192847851401 252 250 251 1.2100001896704349 16 1613 7 1348
157 -2.5809267177600805 0.10250750272683552 2.1153528665699355 226 221 225 1.4365139272629559 1 1140 8 921 12 1142
158 -2.5504740382730096 0.070749567487081319 2.9962872834369012 202 153 101 0.43010740613984605 1 1147 12 1149 7 1269
272 -3.4986069010635634 0.019225782787999485 2.9932760796537905 255 162 55 1.3152077323430482 8 1174 11 739 10 1217 14 1273
159 -2.8547629901611993 0.011098755145139614 2.9853294470518472 116 111 110 0.07155476278706363 1 1157 8 1146 12 1160
1388 -2.0758909992632919 0.10038352914438094 3.6718140334290839 245 245 243 0.41486980563320808 7 1287 6 1092
817 -3.5397142810363231 0.091314344560188956 2.9776745119961006 44 42 43 0.61851044402105426 8 511 16 543 14 566 6 434
160 -2.1845656737739749 0.063282998500461582 3.1445372168836134 151 149 150 1.4342815384078849 1 1 8 1 12 1 11 1
825 -1.9810506411419146 -0.032882954404908016 3.0389266143126599 216 173 75 0.50380591169278843 8 1031 16 618 7 559 6 341 14 303 13 292 15 324
168 -3.5087893385573738 0.12408675956698771 2.9805956183334588 204 193 199 0.2574932001074125 8 26 11 38 10 27 1 32 12 32
290 -2.0697715483461518 0.046036810067971091 2.9188578819629396 68 64 61 2.2722374361100721 8 466 11 1141 16 1043 7 547
169 -3.5749531624046456 0.02980564109244848 2.993217539293604 243 165 7 1.8943895372913608 1 43 8 60 12 43 11 55 10 35 16 82 7 119 6 141 14 261 13 327
829 -3.6457302920894525 0.032864220503162775 3.0230317943913447 246 241 245 1.6402974535509522 8 1281 16 688 1 644 12 644 7 1452
172 -3.4838099893815064 0.10721772276849972 3.0045737736716065 253 253 253 0.88565853219192092 1 65 8 91 12 64 11 74 10 85 7 183 6 166
1503 -1.9532347934979826 0.014460514193932787 3.0140166926530325 107 8 0 0.4916917292444859 6 502 14 366 13 317 15 295 18 293
174 -3.5141890348951157 0.029794572365015658 2.9949674663192152 29 16 8 1.2656960621075581 1 101 8 83 12 101 11 106 10 145 7 100 6 142
1497 -1.9416084227532704 0.025900477787798682 3.2371662234142935 46 43 36 0.27147209224292784 6 310 14 327 13 320 15 205 3 186 17 346 9 233 18 297 19 332
298 -3.6576937565119931 0.015354592767376473 3.0244607977535991 26 26 25 1.0327700066305483 1 434 8 618 12 437 11 428 10 287 16 1602 7 1485 6 1338 14 1282 7 1486
177 -3.4876040872129397 0.14156023705518805 2.9759192745675724 235 229 233 1.5011942881101377 1 115 8 165 12 115 11 120 10 122 6 158 14 291 13 272
1286 -3.6696592847536662 0.19219208170932608 3.0333340204192365 231 230 230 0.72615651113407831 7 513 6 546 14 1027
178 -3.4576095512589271 0.14669795669113136 2.9930252598401523 223 217 219 1.3254425139634651 1 118 8 139 12 118 11 122 10 124 16 164 7 174
1795 -3.1174360257428759 0.13175769634022949 3.3461375967810243 217 212 216 1.3549506364185189 14 1351 13 1134
3030 -3.2089131072224397 0.017811308822804777 3.7080564216775902 227 199 117 0.12268115149183953 18 1107 19 1191
308 -2.3291876838466892 0.12017600562239109 2.9369296182887679 201 195 199 2.6292006810831117 8 24 10 34 16 34 6 48 7 30
1191 -2.154908171234001 0.092497278114047579 3.6215965767196154 13 13 13 1.6929878408887566 8 8 15 2 3 6
179 -3.4118404590556715 0.15204945166055747 2.9826140021757421 226 220 224 0.79240786507475658 1 121 8 141 12 121 11 125 10 179 16 194
773 -3.0375206751587052 -0.026688343877187354 3.3539615923684831 20 22 17 0.68358566766078666 8 114 16 134 7 143
180 -3.453167395400822 0.074677073474587852 2.944672545166465 30 29 27 1.6631322403306441 1 125 12 125 11 175 10 161 6 175 8 147 14 1090 7 186
302 -2.2311603468901775 0.12692640802155611 3.056414033967326 221 219 222 1.352491591008123 8 9 10 7
1113 -2.1161620760660069 0.11352616069568823 2.9858338053436779 224 215 218 1.9790589743542946 11 1040 7 1028 6 1191
1992 -4.9786152279497848 0.066934218341610355 3.5714857472582437 34 32 33 0.31620884668257943 15 427 3 333
182 -3.462451276854734 0.13665523007159036 2.9972669008471029 214 212 215 0.64978763748695723 1 155 8 163 12 155 11 166 10 153 16 191 7 230
183 -2.309023618690718 0.13701656320102326 2.9222405287733864 246 240 242 0.62367938737630402 1 157 8 137 12 157 11 162 10 121 16 165 13 273 15 353
1284 -2.0263322251608251 -0.040157822693118676 2.9992343911668549 48 33 17 0.20736200189437595 7 587 6 528 14 456 13 491 15 508
777 -3.2905241441779496 0.0546700921494708 3.0188157114489607 43 41 42 1.2416442114263193 8 136 16 170 7 474
184 -2.2868567831184965 0.14291723219180477 2.9445697849915491 219 213 215 0.52949918684934061 1 158 8 140 12 158 11 95 10 167 16 166 7 130
186 -3.2460604338257988 0.020607580427442856 2.9860678314426017 247 178 56 1.4715587549739133 1 201 12 201 11 224 10 240 6 140 7 278 14 189 6 202 13 246
1803 -2.3698629922995358 0.025477717208598104 2.9336891536852234 216 144 33 2.5095954661538595 7 863 13 1169
316 -2.8152146768287429 -0.016296074986599216 3.0021564356719797 252 254 251 1.4281211464192141 1 129 11 99 12 129 10 74 11 132
1199 -1.9138601958345001 -0.036678113350100468 1.1578602601490215 0 0 0 0.73808944612031857 8 197 16 11
187 -3.6110902959957869 0.035357258979614108 3.022648790770555 29 22 12 1.3929020936857333 1 206 8 217 12 206 11 228 10 694
781 -2.3259081747816888 -0.01714525919835631 2.9770391126567426 255 251 248 0.47550677141690167 1 188 11 214 12 188 16 217
189 -3.5125084391686849 0.020007648939733697 2.9889924295256285 210 24 14 1.0996913202636494 1 260 8 319 12 260 11 251 10 285 16 308 7 335 6 309 15 1153
190 -3.5636710523240329 0.020280395348011453 3.0018774160809971 180 36 4 1.2898364786252561 1 261 8 443 12 261 10 445 16 307 7 336 6 308
304 -2.855048932300138 0.046001380372664477 2.9737976991776431 243 167 4 0.78847907595081368 1 10 11 12 12 10 10 9
1292 -2.120390605874293 0.098233356894451673 2.9969209485691288 32 32 30 1.4607983167211347 11 1008 6 562
194 -2.6082404989534145 0.066275963267649118 0.56982453003293909 238 232 234 0.68015717653333019 1 329 8 942 12 333
1875 -3.4483394226392576 0.053649312933440794 2.9834570273416112 114 114 116 1.2587874441472238 13 227 15 285 3 289
324 -3.0786666559154861 0.040032710848258046 2.9514365339336583 248 176 6 0.16539542037572594 1 77 11 89 12 77 10 94
1271 -3.2128044490501759 0.030284955438509103 2.9700942419048015 200 137 19 0.43403642876059134 6 487 14 1248
195 -3.0378450156365986 -0.041491719439497921 3.1187629760960704 253 250 249 1.0365507558661162 1 338 8 300 12 342 11 331 10 356 16 616 11 705 7 560 6 524 14 708 13 864
853 -2.2782372469293004 0.064682988464289562 2.9536405135941135 10 8 9 0.82025807654852534 8 488 16 886 6 422
196 -3.231758355972759 -0.0022784055343801242 2.8816774664833971 248 217 152 0.43156776378954692 1 450 8 1099 12 452
197 -3.0431654557583254 -0.044243336944640922 3.1173230639281808 68 68 68 0.23827179690416639 1 459 8 404 12 461 11 460 10 476 16 614 7 565 6 526 14 510 13 486
376 -3.2860111311380495 0.00031492606387748846 2.9982945156214393 116 86 66 0.13736291863900443 1 252 11 247 12 252 10 265
857 -3.2879956547640674 0.10671831085633014 3.7137032476330756 0 0 0 0.49052614534701244 1 487 8 1306 12 490
200 -3.4741839986356191 0.069671400939141551 2.9785777855238744 53 52 50 0.47171802478670649 1 501 8 786 12 503 11 520 10 964 16 1378 7 914 6 1228 13 959
1582 -3.572612586764969 0.14283982029130834 2.9798386389000755 255 253 254 0.94666648937351738 7 1095 14 998 13 893
332 -3.4837229813021606 0.068808443860673349 2.973921637159513 179 179 177 1.3167627966369797 1 109 11 110 12 109 10 113 14 232 15 435 3 674 6 247
1279 -2.7964732607042695 -0.027857752966486349 3.3998232371479311 148 53 7 1.983610875687168 11 726 6 519
203 -2.9668713266499984 0.13279618082015593 3.2255344230987535 226 215 221 0.6735104911772174 1 554 8 531 12 557 11 581
861 -2.4319168817109253 0.068422606926490936 1.2715961737472121 254 251 252 0.40357086592359304 1 1018 12 1026 16 940
204 -2.9486183455281849 0.13401952760999986 3.2349191692313068 213 204 209 0.36070228746655264 1 558 8 533 12 561 11 472
206 -1.9418496218331815 -0.009617057247454314 3.0933820037954129 255 254 250 1.4956645387652907 1 717 8 1080 12 718
340 -3.6030571308405079 0.045311264347209688 2.9447401388938159 87 85 86 0.62757045658908117 1 1078 10 148 11 681 12 1080
549 -3.2862306583849819 0.00239588451767214 2.9991142529443269 255 209 121 0.93324784103542124 1 749 11 774 12 750 10 803 6 1347
1223 -3.0494891261828529 -0.03924316029147442 3.1195594934285129 26 28 21 0.95250681494675793 7 140 6 136 14 140 13 165
211 -2.2654187602223632 0.12586151894402361 2.9207707732844157 253 248 252 0.22705719552573159 1 787 8 950 12 792 11 802 10 864
933 -2.3476014151339135 0.11462242146838234 2.9528998180395241 224 216 219 0.73822218812152229 8 887 16 1638 7 1031
212 -2.2667139735600701 0.12711508920003226 2.9215698770816934 209 205 206 0.1540171572746247 1 795 8 954 12 800 11 808 10 874 16 1153
334 -3.4539643006553873 0.12938779025507238 2.9628655125488588 249 247 250 0.77655903835567042 1 114 11 119 12 114 10 119 7 171 6 121 14 164 13 202
1273 -1.9524198924489788 0.020938400512543462 2.9811929334149037 157 62 0 0.36640912036918361 7 520 6 494
2612 -1.9227649400702094 0.017482199503799589 3.4131737711569068 45 27 15 0.028173965751305503 17 340 18 385
214 -2.2689630887697398 0.12856794763260601 2.9272313689362943 254 251 252 0.21810744487176023 1 805 8 960 12 810 10 882 16 1159
215 -3.4522812383051491 0.13065853060640245 2.9734962290497218 203 202 204 0.2859402223557847 1 811 8 943 12 815 11 819 10 876 16 1130
1589 -2.1731184297736164 0.05759137132019395 2.9268494265437166 162 161 161 0.39848784381827063 7 669 14 1049
546 -3.2917182314797984 -0.00052847519426848719 3.0197817847834956 36 19 7 0.049944969376138501 1 743 11 1185 12 744 10 796
216 -3.4483098495020688 0.13223787683202984 2.9638020337332622 254 251 254 1.0715990342588269 1 817 8 948 12 821 11 824
1598 -3.2550148782170982 0.091241892032897107 2.9957244443967559 51 47 48 0.29566584985344618 6 609 14 1173 13 802
338 -2.20387556336784 0.084615976507039725 2.9204258435324308 205 203 204 0.26632230704828874 1 95 11 114 12 95 10 131
217 -1.9388834738149294 0.1452629820220758 3.1025135045947865 212 205 207 0.73655700628655629 1 843 8 782 12 847 11 855
348 -3.366371095866115 0.13059054565030814 2.9788855355800639 208 202 206 0.15106135409751659 1 150 11 170 12 150 10 175
557 -2.4911750400797827 0.12069077860291866 2.9001974045509313 254 253 254 1.2756889197661314 11 572 7 398
1231 -1.9255075310428897 0.063003387089037924 3.6568299900157362 37 35 36 0.61053931980297249 7 262 6 199 14 202 13 224 3 816
219 -3.4388565327949094 0.15043531555727166 2.9784895905471904 227 221 223 0.46267436205522555 1 861 8 986 12 865 16 1188
336 -3.3887664706974081 0.086254067981008001 2.9677637092818117 235 233 236 0.82648424547955512 1 105 11 115 12 105 10 127 6 234 14 220
545 -3.6479805269042815 0.015773100478061707 3.0303029742701115 38 34 35 0.31813927057520808 1 1133 8 619 12 1135 10 795
223 -2.3001438017821796 0.07134311737192929 2.9298807701708212 79 77 78 0.46627125928796509 1 901 8 695 12 909 11 996 10 546 16 777 7 923 6 832 13 791 15 773
1452 -2.4554339647880208 0.06289811917926337 2.9446295766308244 178 113 21 1.6122609272982529 1 493 10 1116 11 510 12 679 14 1072
1597 -2.0717627621251027 0.083535550241014708 3.0072715451234058 41 40 38 1.0260171755646625 6 1356 14 1171 13 808
881 -2.2329591371243991 0.059981374916348314 2.9262418762769027 12 10 11 1.4078127046203717 1 980 12 1014 16 1085 11 1097
280 -3.5403921971524355 0.11775399055250768 3.03043820027428 254 252 253 1.9649240753914694 8 877 11 1043
354 -2.2357414998532517 0.082165935053731487 2.9278737653868037 31 29 30 1.3941375456992868 1 175 8 150 11 179 12 175 10 187 14 170 13 349 15 453
233 -3.5931759487265866 0.15222518909315511 3.0786136898826171 224 214 213 0.83595764774404313 1 16 8 17 12 16 11 5 10 14
1406 -3.4534797594960329 0.067471218323646998 3.0024947445751269 0 0 0 0.21278770497727895 7 1130 16 1200
236 -2.4771604400173763 0.01050542225664176 2.9423003735143922 20 20 17 1.2315580337128893 1 42 8 45 12 42 11 54 10 55 16 80 7 47 6 67 14 67 13 91 15 123 3 258
358 -2.4644652750539882 0.080739326020099492 2.9661834668215894 29 27 28 0.69507770708989314 1 281 12 281 11 280 10 198 16 274 13 533
237 -3.0899276314487909 0.14234558159281432 3.2768548364223222 217 211 213 0.6884801037211451 1 68 8 70 12 68 11 61
238 -2.1750356669048707 -0.043140623282252419 3.001653183208953 31 27 28 1.1889347669084382 8 75 11 69 10 57 16 119 7 109 6 86 14 120 13 83
352 -3.3930198660254227 0.12596347915214154 2.98648759069654 238 233 237 0.065147399273311674 1 146 11 176 12 146 10 181
239 -2.2537358462451063 0.064912688414753034 2.954329079849054 156 154 155 0.98659123272021143 8 88 11 83 10 110
833 -3.2755403461604518 0.017433188070588444 2.9733085635078442 47 21 0 0.2267740360452562 1 1128 12 1130 16 753 7 858 6 757
240 -2.4236698312951654 0.041255337401315519 2.6754569745525205 239 167 26 1.7127978814291924 1 79 8 62 12 79 11 85
362 -3.4841807396963169 0.14774546393569149 2.9751569491198602 240 234 238 0.33510222520024041 8 243 10 215
241 -2.0401295819107652 -0.041704448289878453 3.0336349483489506 47 45 46 0.2062398093404568 8 168 11 96 10 132
1350 -2.0956732430967886 -0.034646633240922688 3.5310075049889424 255 177 33 1.3647724458536707 6 848 13 857
242 -2.3630264866287454 -0.032809655988202256 2.8186587642100478 255 187 35 2.1523736733383441 8 103 11 97
1859 -1.9835284656785777 0.054766950105086996 2.93247517268314 44 42 43 1.4882769036541932 14 109 15 134
372 -2.2668811197524068 0.067393808738721681 2.92669775286529 135 133 134 0.43364398661131193 1 166 11 183 12 166 10 248
1255 -2.192812918881498 0.10940253457395951 3.5889481759614941 33 31 32 0.18858657333713347 16 493 6 363
243 -2.5259409084579336 0.13172404016015427 3.316640983902988 249 245 246 0.5831580169953563 1 103 8 153 12 103 11 117 10 117
837 -2.7866650609503822 -0.045371233881673675 3.0197900087368357 64 62 63 0.79834727269599204 11 360 16 768 7 804
244 -2.3561395919570476 -0.0286151417132781 2.977430624296372 41 29 17 0.96109447454918995 1 132 8 171 12 132 11 128 10 134 7 218 6 157 14 210 13 225 15 326
366 -2.0719819780266802 -0.044963325705753031 3.0027525771995065 253 255 250 0.024588431795159908 1 239 11 206 12 239 10 222
1177 -2.1566219638118991 0.13100180194354347 2.9157788650952035 170 162 166 0.76584110093418223 16 592 1 330 8 389 12 334 11 326 7 756
245 -2.1988650208760321 0.058779467989979961 2.9395349952313503 14 12 13 0.41082348116895484 1 161 8 110 12 161 11 150 10 155 16 175
246 -3.3622900840004655 0.061472546734976048 3.0078710874352295 19 17 18 0.52419935828071307 1 162 8 225 12 162 11 151 10 156
360 -2.2754070852881112 0.10555590805507842 2.9440314497432514 202 200 203 0.94825522107594495 1 222 11 189 12 222 10 204 7 371 6 269 14 286 3 967
247 -3.3587635981622315 0.14880697293045222 2.9698833750950313 224 218 222 0.17924611511893501 1 159 12 159 11 160 10 165
1348 -1.9752895510886821 -0.034799309025223622 3.0641621675169302 247 186 59 1.082453967832526 7 951 6 844 14 840
841 -2.0852396279579755 -0.005929885304666164 2.8191549616696725 94 73 57 1.1431840000936138 1 618 12 618 16 805 11 751
248 -2.4288724433275495 0.082117718742965362 2.9754358778047276 255 253 254 2.2209776087229076 12 315 11 187 1 312 10 286 6 436
250 -3.2110542727973104 0.039418551847010382 2.9009433667324247 250 189 41 2.1957206492021797 8 194 7 337
1867 -2.1834839664413122 0.11007289168323837 3.0427132086163842 0 0 0 1.5599336311002669 6 1175 14 655
380 -2.7931619437227271 0.03991163635220793 2.9614824339415602 252 180 16 0.15173616159408634 8 332 10 271
845 -3.3316923724288334 -0.0051051748046397781 3.2087621729719018 254 254 252 1.4537691976994609 8 580 13 451
252 -2.2844590986652453 0.070962882170040945 2.9451979823154688 88 86 87 0.77006741956903169 1 217 8 228 12 217 11 238 10 250 16 268 7 358
374 -3.6547814448762899 0.071079750389954621 3.1388700211373419 253 251 252 0.81600608176246892 8 688 11 237 10 254 1 215 12 215
1249 -1.9698965996796585 -0.034622513570789971 3.1965099868346534 183 25 0 0.19981912606382013 7 561 6 339 14 361
253 -1.8589987825969037 0.047775991785165457 3.5752744089939936 254 254 254 0.3158927854784625 1 269 12 269 13 331
254 -2.2361269405557143 0.077680326317149606 2.9488289530701821 148 146 147 0.098589503918925278 8 279 11 279 10 283
368 -2.0521306775733037 -0.020811909056507229 2.9665799048760761 70 66 51 0.72678838974836191 1 343 12 347 10 230 11 211
255 -3.5449997151949604 0.055954726761242232 3.0530308960965682 26 26 26 1.0266322488563313 8 347 11 288 10 310
1356 -2.3153157794060961 -0.022170372948623011 3.6155210934683888 99 63 36 2.4633892200249599 16 1197 6 873 14 499
257 -3.0710865636376763 0.0057119067821571759 2.9521052609237874 227 165 49 1.1958204645587338 8 314 11 340 10 369 7 465 6 411 13 427 15 666
259 -2.4377174400860913 0.081897269394882816 3.0338454735010454 31 27 28 1.1126481840294813 1 395 8 1266 12 399 11 373 10 387 16 1465
1714 -2.0740668450283706 0.080680609740142628 3.5314955133538217 177 176 174 1.4690274889205555 6 989 13 537
692 -3.3041268284617882 0.049362035226182564 3.0133276063686543 27 25 28 1.1970344727325617 1 665 12 665 10 1176
261 -2.2006335919534332 0.036315815423350641 3.0018701764723446 42 42 40 1.7644905772241586 1 423 8 450 12 426 11 417 10 435
263 -3.2453044360710681 0.065056453986132134 2.8395890946201474 31 29 30 2.0410870406081258 11 519 16 1379
696 -1.9968807378320965 0.041540224535091402 2.9434813203869501 51 51 47 0.0051994156584885152 1 1086 12 1088 10 1187
265 -2.5525462628187068 0.13116943809142187 3.3254481791297459 212 201 205 0.5039574719868013 1 767 8 753 12 772 11 575 10 835 16 1630
267 -2.1311787346725493 0.04791468065949727 2.9517329866599682 42 41 36 1.4623607718122376 8 814 11 686 16 1046
700 -3.0580403188818734 0.033543974087518032 2.9563327668596804 88 49 10 0.34433908553521503 1 645 11 672 12 645 10 1197 7 1446 6 1311 14 1242
269 -2.0120078279408919 -0.042288289194135423 3.0280219544184517 248 246 247 0.078856311885327893 8 402 11 704
640 -2.4913565583476482 0.061236050495975566 2.8952727729059795 0 0 0 1.1223270012389481 1 766 8 1299 12 828
273 -3.1788168012063553 0.0030163910769234943 2.9819995155872263 249 184 101 0.31177871488734343 8 1113 11 775 16 1321 6 922
275 -2.2579376442950214 0.13005261728034723 2.937123450778143 208 202 206 0.21667679670861673 8 963 11 820 10 884 16 1165
1666 -2.2692785208461506 0.05426874537303495 2.9289273746671958 116 114 115 0.71504604208180511 14 248 13 183 15 176
644 -3.2355947364799156 0.081493339609910828 2.965771342108658 109 109 109 0.11447284187744611 1 492 12 465 10 1038 11 372
279 -3.3804293763831574 0.10150336258389719 2.8885639205727767 29 29 29 0.2891203586979435 1 1158 8 1335 12 1153 11 1022
648 -3.4847519803627978 0.084486804343997052 2.9594725456481639 37 37 37 0.38445221681293629 1 965 11 548 12 973 10 1050
281 -2.5387282742751158 0.13288798039137037 3.3212923265781744 213 204 207 0.43543788885301193 1 777 8 928 12 782 11 1071 10 843 16 1131
282 -2.1908064980771158 0.065686434656809498 2.9459730211962323 71 69 70 0.094669821041038826 1 875 8 1203 12 885 11 1081 10 955
283 -2.0225492026877046 0.064008499000434455 2.9570681596035109 61 61 61 2.0697920466481454 8 487 11 1083 16 434 7 308
1674 -2.084682440035782 0.036257174310165834 2.9261326767642473 218 156 43 1.8598434592811206 14 255 13 238 15 83
652 -2.3904473672228068 0.085724261159586479 2.9825841146680578 248 248 248 2.3508270773500461 8 1296 10 1056
286 -2.7612691165125822 0.060330628597181774 2.9608444899856541 243 170 45 0.88470014549631248 8 1072 11 1103 10 1131 16 1088 7 1374 14 1055 15 753
1161 -2.7514532599540531 0.054532368503947291 2.9621046040475068 198 141 36 1.1304370767986267 11 1125 7 1398 14 1048
287 -3.443638711270586 0.058558272323110304 2.9778677152620716 44 43 42 0.20485164124123528 1 1050 8 841 12 1051 11 1114 10 1144 16 1074 7 1543
288 -2.3381243048384763 0.053502493215713869 2.9645345942462469 21 20 18 0.7355396494523232 8 665 11 1129 10 1165
3021 -3.1685996036348065 0.0083705612615032517 3.7177204126092103 231 189 113 0.095767444672908125 18 1078 19 1162
291 -2.1015087014334566 0.026960161195749701 2.9229704860932806 255 218 77 2.0338290378528394 8 1194 11 1167 10 692 14 464 6 765 13 724
1618 -3.3593750241535143 0.086998666195324967 2.9679358501070512 25 25 25 1.0691640127040267 7 1540 8 1340 14 1370
3014 -1.993337180033375 -0.0048023955574894011 3.0015763631564409 72 62 54 0.27984308551778958 18 1353 19 1146
292 -2.0982841928089688 0.026229919121783133 2.9528438930497654 239 178 24 0.99412056485846367 8 445 11 1172 10 691
1111 -3.0609856481173128 -0.010695374005719155 2.9315558188246404 54 25 8 1.0782478006158813 16 840 7 1017 6 901
600 -2.1703023287644587 0.14668321292958111 2.9206590016141214 218 207 213 0.23114797419951982 1 855 11 873 12 859 10 929
299 -2.4005877617224285 0.068663310211492731 2.9785663748006597 37 36 34 0.20759437503572703 1 890 12 898 11 1019 10 965
1626 -1.7713073228399538 0.054452804517323074 3.1114178594341788 31 31 31 0.63771567770262716 6 394 14 410
604 -2.5207028650531598 0.06360551141549739 3.041227323327838 225 150 5 1.4636437123898343 8 678 11 385 10 945
301 -3.4204464553459246 0.057865308134159368 3.0366782953045086 21 19 18 1.1539001785433289 11 0 1 0 12 0 6 0
1999 -1.9966008062556981 0.068851770807983173 3.0110756514314141 100 98 103 0.49958918006641706 6 1208 3 461
303 -2.3988690774376336 0.070865920101077687 2.921662329129521 28 28 26 1.7518339117523507 11 13 10 8 1 12 12 12 7 14
672 -2.2621789522609137 0.10375816712040885 2.9308857757693421 22 20 23 0.35502343876539466 1 1008 11 1026 12 1018 10 1109 13 1111
305 -2.6662322198236788 0.11005249281643335 2.264530735618933 0 0 0 1.053500401825898 8 14 11 25
306 -2.1139575074932271 0.12438857207432069 2.9864871211083712 200 189 195 0.73761092709954168 1 33 11 37 12 33 10 32
3037 -2.3461384310640829 0.033491990832839491 3.686332755664115 241 165 41 1.1080731142534885 17 1216 19 1223
307 -3.2278084409589227 0.0054543013171190861 2.9734845248304169 147 99 37 0.52213255625423916 1 28 11 33 12 28 13 155 10 33
1698 -1.992753108555098 -0.001755808310526633 2.9976852192851937 106 105 100 2.1579439197847692 14 487 13 434 15 264
676 -3.4323309241853073 0.061529897412016608 2.9820947710387862 62 60 61 0.066800587284464169 1 891 11 1096 12 955 10 1128
309 -2.0996330221280215 -0.013516590227357959 3.3351599092229294 0 0 0 1.4896886515499286 8 22 11 34 1 27 12 27
3025 -3.2216214591202879 0.01040979159724497 3.6966789881221018 211 169 108 0.11701831198177709 18 1085 19 1178
311 -3.5693750746190718 0.12730007585263273 2.8520926918733527 252 254 253 1.5784399947629821 11 73 10 49
3034 -3.1672170529480557 0.02031648499953834 3.7221520195357503 222 174 109 0.22857213071789198 18 1115 19 1202
312 -2.2438278612019831 -0.013383919509345959 3.3633929072439699 0 0 0 1.6172144346755097 1 52 8 29 11 48 12 51
680 -3.3860017279334422 0.059891902863027632 2.9858896721260408 41 40 38 0.055951921566502381 1 1041 11 1107 12 1043 10 1136
313 -2.4781605172692105 -0.023919254743580951 2.968458410555828 85 48 29 1.2866149268587292 8 52 10 58 7 65 14 126
315 -3.0622031026018486 -0.0057593629463126841 2.9345936691737258 34 31 26 1.8164191687477977 1 40 11 51 12 40 10 61 8 101 7 70 14 66 15 85 6 66 16 123
684 -3.3698674887996263 0.056221040665387495 2.9765364784601922 52 50 51 0.091843722942375167 1 1055 11 1121 12 1057 10 1151
317 -2.2694730734478386 0.12596519592093688 2.9155272029824335 241 238 241 0.94418181540114254 1 113 8 135 11 118 12 113 10 77 16 190 7 227 6 160 14 160 13 105
2015 -1.9253911675622346 0.033963825981574033 3.5905251100796081 254 246 234 0.52751719829812316 15 848 3 641 9 823 17 1215
319 -3.3153577326012034 0.13762193389777269 3.6146211413465359 247 236 242 0.30055866369619372 10 81 6 47
320 -2.7630250064359427 0.11746549930459182 2.8823336719758577 215 211 212 0.26467356014743015 1 84 12 84 10 83
322 -3.4534004319049161 0.082077010241574516 2.9615848451546825 234 232 233 1.4183196729191916 1 81 11 80 12 81 10 89 6 100 14 171
323 -2.037389516279867 0.070548695327097552 3.0030726908665777 255 253 254 0.33169369918225672 1 216 11 157 12 216 10 90
325 -2.028287422883408 -0.028971038796840147 2.9778027756615835 55 28 20 1.6297230848760271 1 91 8 170 12 91 10 99
326 -2.3331629241486302 -0.0042214491330217312 2.9491647602071014 32 21 10 0.81642081717607162 1 94 11 101 12 94 10 101 16 193 7 168
1265 -3.2870263938283535 0.074494026244312408 2.9944706022111487 22 20 21 0.51950919617853164 7 648 6 452
327 -3.6484872525544838 0.017680862558647942 3.0205988718710555 68 67 65 2.104950626828435 8 178 10 103 7 280 16 231 14 190
760 -2.4689198569437565 -0.0087262827272818599 2.9230012229997548 103 52 5 1.5635122394449097 1 63 12 62 16 50
329 -3.4578762818327009 0.064961013582798793 3.0017258510165887 70 69 67 1.2612871456834602 1 107 11 109 12 107 10 109 16 179 7 188 6 249 14 242 13 209 8 186
330 -3.3623913400914196 0.066769348759055575 2.9650155249534493 172 170 175 0.26973438548476159 1 165 11 155 12 165 10 111
331 -2.1701943497134168 0.068043245184789602 2.941554229101949 29 27 28 0.1425312286562625 1 124 11 124 12 124 10 112
1786 -3.2909720530022812 0.09685509802800378 2.9980867481682663 27 23 24 0.69420360026764483 14 1306 13 1061 15 1234
335 -2.1979982309262276 0.14976796140980919 2.9377834190253815 222 216 220 0.12450252447543581 1 119 11 123 12 119 10 125
1062 -3.4923484464076116 0.10041834648042711 2.97667570058241 43 43 43 0.39088846703529884 8 1329 7 710 6 1102
337 -2.1862605386747598 0.078263729121936507 2.934819372894284 40 38 39 0.38901006485589185 1 128 11 107 12 128 10 129
339 -2.3165477448096112 -0.0084477422379220877 2.9817424959128505 224 238 234 0.22750130307839045 1 189 11 215 12 189 10 138
1730 -1.9490719515519226 -0.021945874450718248 3.5470604620663724 209 207 205 0.43581191917979467 14 860 13 676 3 382
708 -3.1575666895645274 0.0012941405207548022 2.9762196476734499 133 77 7 0.081019099520830792 1 746 11 772 12 747 10 1231
341 -2.0763587552853218 0.051119617652034127 2.9171388892291708 9 8 6 0.59902673714486598 1 104 11 93 12 104 10 150 13 157 6 184
342 -3.3786963215683099 0.054203147795507736 2.9740892490871991 181 181 181 0.38328024789383353 1 177 8 220 11 144 12 177 10 152 16 320 7 264 6 253
1060 -3.391344985943558 0.11017735514956487 3.6373920176378678 254 253 251 0.74766075350460115 16 933 7 707 6 632 14 623
343 -3.4088766429044912 0.057838402748080955 2.9778942472149552 20 18 19 1.1969740716125774 1 178 8 183 11 147 12 178 10 154 16 172 7 190 6 252 14 342 13 382
344 -3.3404555470071657 0.071562651824558857 2.9854497229252983 16 15 13 0.18071918910789875 1 169 11 158 12 169 10 160
553 -3.2491794465598649 0.0050526059576119784 2.9816209867728913 55 25 0 0.49039848962629395 8 429 10 809 16 660 14 736
1070 -3.1864692124131828 0.11311114109043208 3.001300876373731 203 197 199 0.23962397357210896 11 1039 13 1110
712 -2.2930400598013754 0.060251282586341152 2.9262936303377605 75 73 74 0.69583196726123597 1 987 12 879 10 1259 11 1099 6 460
346 -2.1540515583370419 0.13429289858073151 2.9131837369224396 246 237 242 0.45579939027516481 1 154 11 165 12 154 10 171
1579 -3.4737537133042773 0.13006785484464295 2.9675781690609262 234 228 232 0.52546809005769302 16 1271 14 980 13 1133
347 -2.1871342271399032 0.13079391285682745 2.9230792750438552 211 206 210 0.20691196664440709 1 151 11 169 12 151 10 173
