# 3D point list with one line of data per point:
#   POINT3D_ID, X, Y, Z, R, G, B, ERROR, TRACK[] as (IMAGE_ID, POINT2D_IDX)
# Number of points: 382, mean track length: 5
349 -2.0777281796100064 6.2363420211483458 22.712340819041547 83 81 82 0.49378250839599991 44 0 45 0
1068 2.5960106971199983 6.0436982734122244 20.256534846721546 253 252 248 2.2167674256942798 42 265 44 255 45 272
351 3.2111816772536628 5.3275887163123734 20.753784135719556 8 8 8 1.838390402293252 42 3 44 5
1275 -0.41003426600980408 6.6152910487664842 17.44153783292634 203 200 202 0.66793027847940212 38 583 45 1260
352 3.0173676162160858 9.5205013232412483 20.062211447342179 217 206 210 1.5773428666461289 42 7 44 6
354 1.7381310441962656 5.0370326150326985 20.715695463025376 247 175 7 0.70239063029056403 38 7 46 5 47 9 48 7 49 5 50 7 51 5 44 9
355 0.29720331391717564 5.1847004711817988 20.827964491232553 247 173 4 1.8075758462581775 38 6 44 10 40 13
660 3.7537900153572865 5.6035676899783198 21.391213768765962 61 61 61 0.5722860788387607 46 18 47 11 48 10 49 18 50 10 51 18 44 24
357 -1.3746882280034241 6.2496905803177567 20.740658620678762 30 29 27 0.14122884769267627 42 8 44 12 45 11
664 2.5549650548524694 8.1884243007628825 22.701756978864747 255 253 253 0.875273347758593 42 128 44 111 45 97
361 2.4112109108549191 2.3979317532662674 23.66072561156026 36 18 6 1.3505657445786121 42 20 44 23
1183 3.049686208910483 6.4415756226337244 20.220312481787161 246 246 246 2.0437246826617086 42 974 45 1132
364 -2.9410535677134657 8.6156365238457493 20.209198054298223 202 191 195 1.4756715355550669 38 27 49 25 51 31 44 26 46 25 47 23 48 25 50 33 40 30
668 -4.4482114369872479 3.3876614728928605 20.198472924900116 30 26 27 1.8197705138564331 38 695 44 420 40 274
365 0.72987716803022273 1.4553373390687425 21.906940391497624 215 161 29 0.11669316920231428 44 27 40 42
1177 3.2747897721492274 9.8513484385830967 19.632608200149171 224 218 220 0.41504377785048069 42 967 45 1094
366 2.730806123889014 8.3533781866614323 19.951936130936254 201 190 194 1.2628083340355871 42 33 44 28 40 28
369 -0.41295573745509484 2.2695239646932279 21.293650594749145 253 253 252 0.12332819070579572 48 28 44 37 46 27 47 26 50 23 51 23
1237 2.3566846007072835 5.9103229422628587 20.479899932414277 236 235 233 0.026475608473067933 42 1250 45 1417
370 -4.2531763766647286 5.4213869715316667 22.053933827166997 252 254 253 0.22044362464588985 46 33 47 36 48 33 49 35 50 42 51 38 44 41
1255 3.5268861505292222 1.8811976977606117 21.812181924042481 238 243 239 0.61961435271063803 42 15 45 18
372 3.4127426070148927 2.3076635349158665 22.850357444472809 223 229 227 0.58842012006758759 51 24 44 50 38 30 46 28 47 29 48 31 49 20 50 22
740 2.3171528881116661 6.2039747212162712 20.495056666771575 94 93 89 0.49270300170020792 38 200 44 189 46 215 47 215 48 217 49 232 50 240 51 239 40 228
373 -0.95480040540748612 3.3211447373102212 21.209489890481581 247 171 10 1.5324218562575163 42 52 44 53
375 -0.41705026960757574 1.6961129879324821 22.088987051851259 233 221 214 1.1095142951834915 42 92 46 108 47 103 50 112 51 110 44 56 48 103 49 98
377 -2.7729408469692003 8.0911928755771427 20.80988980346806 252 254 253 1.0313644295823203 51 95 44 71 46 92 47 89 48 89 49 87 50 96
1245 -1.3129796936111231 4.9068817941055611 20.964421421110497 247 179 78 0.123285974497175 50 1420 45 1500 51 1383
378 0.94742973300721156 1.6912360513587841 21.5910175981194 54 34 10 0.84316830504681795 42 91 46 65 47 66 48 66 50 66 51 65 44 73 38 99
379 0.65436436272434351 9.4426071061965331 22.267569672655267 224 218 220 0.78888677732075363 46 88 48 86 49 88 50 101 51 101 44 77 47 106
748 1.8461416432898163 8.519058900256022 20.879999420302028 226 217 220 2.5389073730086866 49 283 40 247
381 -3.187128652449299 7.3703346868346173 22.889906043390791 254 252 253 0.11417713922614461 42 36 44 85
382 -0.61588158310974761 2.688448245390286 21.126676182679976 63 59 56 0.6576583435842297 42 69 46 105 47 101 48 101 49 77 50 114 51 112 44 94
383 -2.7535722833434138 4.4221317970482161 20.858201732913944 29 23 2 1.7587449567052986 38 92 45 165
384 -1.1515203537570053 4.6107031773233986 21.076540782072705 243 167 1 0.70923053977763573 38 158 44 97
519 -1.6056413772853704 2.8953965708893059 21.519554017782927 244 211 145 0.2041735619005306 42 944 44 627 45 1020
386 -1.7406112810933285 6.0631763243877401 20.769627092455725 162 160 161 0.26560950284504042 38 197 42 112 44 102 40 167
388 -2.6005860175892499 6.2736880874194156 20.529838937815555 159 158 156 0.55597022314068889 42 184 44 105 40 118 45 173
533 -2.2582128569661806 5.7674169777630633 20.669739942547384 15 12 13 0.26714907945194788 38 1137 44 678
571 -0.76685521258839207 3.8433684089522568 21.1294033365382 239 175 36 0.76771093097723764 42 778 44 817 45 519
390 -1.8211660206704703 6.7077860592700214 20.612207219783542 204 202 203 0.48543083295730299 42 101 44 107 40 159
392 2.4821984637782184 9.112122353368914 19.830140704778845 210 204 204 0.57591709217800191 42 120 46 182 47 180 48 181 49 146 50 185 51 158 45 156
541 2.946700832865834 0.31110819123233069 21.506131040011862 17 13 10 1.0817667766908126 38 649 49 724 51 759 44 701 40 586
515 3.1416834404780403 0.14536078388926402 21.576614190435048 80 76 74 0.49527611809815109 38 732 44 602
398 3.6314966489936769 0.32756561257856298 21.553606707327884 67 63 60 0.70028176478665294 46 152 47 154 49 149 50 184 51 165 44 125 48 152 40 101
1052 3.7869147432040582 5.3175139366487656 21.636374033310354 0 0 0 1.5079601518030539 38 241 40 112
399 -1.0152117110775998 2.7863827808814503 21.473492109317586 58 49 47 0.83100676468142187 46 218 51 215 44 127 38 253 47 246 48 212 49 207 50 213 40 183
400 2.3031277246803561 2.681954460518027 21.105081272206693 31 27 26 0.39440347684152383 42 146 44 128 40 104
535 2.7135323726280909 5.7434273516873704 20.390663553993537 27 25 26 0.17293760314072201 38 639 46 1073 47 1269 48 1272 49 1206 50 1054 51 1259 44 683 40 664
402 3.5534711586852481 1.1019952537590698 21.164114492295607 71 57 46 0.81506967653707507 38 144 42 139 44 135 46 155 47 157 48 155 49 151 50 188 51 168
1080 3.0866785311582738 4.8962103392610405 20.496460650893471 35 23 9 0.16228864723033515 42 423 45 356
403 3.4835815818797888 2.5128931043551654 20.876241909502909 50 38 28 0.61694947463303029 38 149 44 139 46 159 47 162 48 159 49 159 50 193 51 172 45 204
404 0.62989678429745233 3.5720623681745347 21.14271177559695 252 182 10 0.60282941478046337 42 148 44 142 40 179 38 155
1074 -3.124446079163429 6.3816017943201437 20.751693469457791 50 48 49 0.47791699568382906 42 405 45 299
405 -0.5461722470757483 4.6513571161574205 21.025786283552176 95 96 88 1.1711970207965172 47 150 50 130 44 145 40 217 45 111
523 -1.2387475347100574 3.1480273015236158 21.29783819403379 203 162 72 0.62715949507036595 38 987 42 761 47 731 44 631 46 793 48 799 51 799 49 766 50 681 40 898 45 860
406 -3.4379255479128137 5.2329005437194951 20.814045247163218 0 0 0 0.27934689609589952 42 72 49 347 46 375 47 371 48 368 50 357 51 364
1124 2.4908610365063493 6.599379047173799 20.314565245552988 0 0 0 0.40132342595370196 42 992 46 1167 47 1131 48 1155 49 1112 50 1412 38 562 51 1166
407 2.5525305745257492 5.3578976629655752 20.474288967706755 210 206 207 0.45651667213788411 38 161 42 199 46 165 47 168 48 166 49 164 50 200 51 179 44 149 40 174 45 260
408 -1.9764307243111325 5.6276406607251319 20.823315372870336 172 170 171 0.54356969774410036 42 189 51 230 44 150 38 193 46 265 47 207 48 208 49 224 50 232 40 173 45 175
617 2.3848825992062035 8.5067839627464785 19.899890215984716 249 243 245 1.110488101784928 38 868 42 1215 49 1395 44 1052 40 758 45 1316
543 3.729580464512674 0.58997823124672832 21.511945890181771 255 220 99 0.77760206420624611 42 332 44 707
410 2.7466724360636898 5.678162927605265 20.372921220732781 203 202 198 0.71494186800019111 38 187 46 170 48 171 49 169 50 155 44 153 51 1304 40 168
1024 2.3174070394004582 8.9584209746345991 19.918864141579558 223 222 220 0.26494432293084824 42 11 45 25
411 2.7382188701109076 6.2881349563266511 20.250581811093443 204 202 203 0.35048234322032951 38 183 46 201 47 197 48 198 49 176 50 162 51 190 44 156 40 120
412 -3.8047271116483103 5.6913242318475215 22.957853344121499 33 32 30 2.9500739291794913 42 157 44 159
621 -2.0314069062783737 5.8919380806375017 20.798524429154423 55 53 54 0.12424594904008301 42 1262 44 1065 40 1011 45 1438
531 2.0540284378124403 5.3595198740450094 20.628810459043329 16 15 13 0.36728477672872639 42 591 44 672
416 2.4824475599048159 8.7165940561468638 19.933070149202297 210 204 206 0.12233385263923094 42 171 44 168
561 -1.3596835651825949 3.3590180625700579 21.307127018074802 66 6 3 0.17833828407676827 46 1422 47 1402 48 973 49 988 50 1183 51 1087 44 770
1078 -1.1376235343366519 3.7784690994823222 21.176413981344581 232 177 14 0.69610718198692456 44 253 45 318
720 -2.8898380631494227 9.2448846617086105 20.048011874277595 234 228 232 0.70740907295989497 44 116 40 130 45 220 42 229
417 -2.222040449763488 8.9037390902306495 20.285170423429399 213 207 209 0.47149686748763042 42 169 44 169 40 144 45 159
551 -0.57994489495753876 2.3696959085869951 21.237552253844832 49 50 45 0.20424017597378188 42 924 44 734
418 -0.29369955186848479 9.1601873550382482 21.252037389504526 229 218 222 0.77451447002008811 42 172 44 172 45 160
419 1.4848426655006892 9.1890409348046997 21.997284774519425 254 248 250 0.91347254474157491 46 191 47 189 48 190 49 184 50 174 51 197 40 124 45 228
1239 2.6634238910073975 5.7354812864133038 20.380195993740088 167 166 162 0.50611486700643049 44 1056 45 1439
420 0.33093028400260061 0.49585972038812376 21.77819031656059 253 253 251 0.83012105043356499 38 143 46 154 47 156 48 154 49 150 50 187 51 167 44 181 40 136
565 2.3574397177058861 8.6078848604980696 19.893069011734266 247 241 241 1.206367410247307 38 881 42 1160 44 787 46 1014 47 994 49 977 51 1029 50 1001 49 972 40 779
724 3.4949641210738505 1.4155388226529799 21.195486404306514 168 121 101 0.1109809511899176 42 134 40 137
421 1.8622350998425201 3.5587454114642965 20.970451879424438 32 28 25 0.21585953245307418 49 262 51 293 44 184 46 284 47 280 48 279 50 300
1233 -1.945911001692173 6.2285914742067225 20.790210417658365 244 244 242 0.8354805539315322 44 867 45 1396
422 2.3211040816752613 6.5275514126429801 20.402621220662688 33 32 28 0.46021565311280554 42 258 44 191
1076 3.0467679853887946 0.2705562255466043 21.81889824304568 252 250 250 0.53525382821992495 42 331 45 303
423 -2.3542366927135752 6.7722098090789284 20.673804051476953 102 100 101 0.82983782407471562 42 256 44 192 45 681
424 -0.53169154777715544 2.7269260567227751 21.163525875534724 41 37 32 0.078130445773430937 42 227 44 198
569 2.5279026768571238 8.8336015898829032 19.806173812126538 201 195 197 1.4272806499880932 38 904 42 1195 47 1018 44 814 50 1026 40 578
1086 2.5963752488384579 8.695021189654133 19.880406172148977 253 249 251 0.23359397437441398 42 369 45 395
425 1.2265147487439891 9.0311936329554179 21.438035845851473 218 212 214 0.33281721137069509 42 237 44 206 45 227
559 3.6154572042343971 2.947523240446158 20.853987643316824 234 165 48 0.12852631868415665 42 945 44 766
426 2.4544973198649962 8.4441494419469549 19.932715838860538 233 228 232 0.3596014204512315 42 238 44 208 45 297
1247 2.058219460312968 4.6871648577344267 20.684582887513066 255 220 111 0.18791501904770783 42 1310 45 1505
428 -1.036864640640756 0.63271984496645206 21.980130312149473 253 253 253 0.91783463708155011 38 745 46 879 47 528 48 864 49 825 50 565 51 428 44 213
547 2.7562268362738269 1.7170895446920533 19.824042357433264 41 43 38 1.2678491708086372 46 528 48 533 49 497 51 534 44 724 47 515 50 581
1241 2.5183677975202277 5.6346752139908602 20.487276536429277 189 188 186 0.19971899904547652 44 1071 45 1455
430 -0.76429348772304062 2.8875975431325189 21.266356001428495 153 92 10 1.3693137212148117 42 214 49 291 44 219 38 299 40 254
432 3.5063356224580042 0.15259086630605784 21.487201739566292 254 253 248 0.41747360568316122 38 222 44 233 40 199
567 -1.4388029704962761 3.8897044280376059 21.165839599076378 174 112 7 0.50191222920124801 38 1201 44 806 40 1094
434 2.2613123939401936 1.1462512875296502 21.384399364943594 248 184 1 1.3061242280542065 38 379 44 239
436 -0.62960012502534757 3.1415788497278299 21.181711190291736 49 30 11 0.040903186736074473 42 315 44 246
517 0.85069072142743341 1.6847601182557972 21.554039171099056 72 34 2 0.31076117003349962 42 643 44 608
555 0.55592738559239019 2.9560891593425453 21.687076981430433 79 26 1 0.93458254124291129 42 480 44 757 45 854
438 -0.91928558487471768 5.6012182803510902 20.834583423579453 223 146 4 0.25536009525100561 46 380 47 376 48 373 49 355 50 362 51 344 44 257
575 -2.1633686255158326 9.1648170994718523 20.260100242449269 213 208 212 0.23907555128850588 42 1218 44 825 45 805
442 -3.4559950283626133 4.5973101794112665 20.519785077889594 28 23 18 0.42219043076958868 38 237 42 323 44 272 45 511
525 -0.50514784575951377 4.6530125004173932 21.005144136514712 83 53 9 0.25670631885303963 42 791 44 650 40 1072 45 1518
445 3.6570696310694761 5.9331203682232205 20.871456961389569 52 49 50 1.3371699894584717 42 1252 44 284 40 166
563 -1.4048328169794342 3.959585583409388 21.18867006414176 159 99 0 0.20907780063666465 46 1392 47 1374 48 1404 50 1216 51 1422 44 776 40 1091
446 2.9131210812101438 5.2436199348245713 20.596251695704641 133 132 130 0.74503148948647024 50 741 44 287 46 737 47 848 48 740 49 1305 51 629
448 -3.8945320639311714 6.6082569021584723 22.101932711198266 52 50 51 0.73978774735620101 44 292 40 479 38 958
593 2.3447079185164381 6.4843955839924572 20.401886008060238 31 30 26 0.33144690713636488 46 609 48 440 44 914 47 596 49 634 51 668
450 -1.3018946785419749 6.2503112879206002 20.844681136234946 42 41 39 0.6290488980647081 42 264 44 294 45 250
597 2.5889287954284326 6.5257889088991101 20.361567682057697 50 49 47 0.13057639631615134 48 1146 44 923 40 502
635 -3.5506673456405391 4.7407162500744189 20.634319833128806 145 143 144 0.52316712950538768 42 796 44 1118 45 789
1108 -0.78477076523354228 0.57344008038621319 21.979649301393259 87 77 76 0.077169842650059134 42 882 45 582
455 -2.8772294017534619 3.3257645558615412 22.251475513628396 41 32 28 0.45284063271025277 42 349 44 346 45 363
456 -0.71248406048864832 3.1788227321949116 21.122469281750192 201 140 47 1.5220801138415878 42 350 49 324 46 250 47 249 50 209 48 971 46 917 50 1168 51 953 47 1418 45 542 44 348
601 -2.4404863427823669 6.8481663487388884 20.539584177516947 60 59 55 0.21630482738861104 42 1021 46 1156 48 1143 44 937 47 1117 49 1098 50 1305 51 1145
591 -2.6561997354945928 6.4977658054559777 20.504004158742752 202 201 199 0.008393300504526538 38 993 44 901
458 -3.7787110139692257 3.7697758840026214 20.460300111530181 43 37 44 0.42560257528814044 42 320 44 352 45 369
460 2.2235941416549663 4.9793242906231638 20.679827665196363 40 39 37 0.22343665812687732 42 421 44 359
605 2.8255863302222561 7.1925433108903931 20.087167815710522 247 247 247 0.69387105848179254 38 1079 42 1065 45 1224
462 1.5200382265609886 5.9169775743958937 20.638220424119304 227 153 4 1.3154462156166109 42 579 47 995 49 717 46 1083 48 1070 50 1198 51 1122 40 829
673 2.5655881911117877 2.116720573284042 19.273158621880981 198 200 195 2.5394504472237123 38 961 44 735
464 -3.5392152147447651 4.405649703436862 20.501022293486898 67 55 39 0.82906717794158791 42 377 44 387 45 320
599 2.5148161370061328 6.5709664326838721 20.315155509419608 228 227 223 0.3484103407440523 42 993 44 930 40 505 45 1143
466 -3.7249842235171489 5.8254393339887409 21.764573102388702 79 78 80 1.7052652073575771 44 392 40 317
587 -1.9007115499055354 6.2800661788723193 20.801580160759169 75 71 72 0.35493336101712619 42 1232 44 873 45 659
470 -4.080330665708801 5.2713676864801364 23.576809958780721 22 18 19 2.432634687401444 42 793 44 405 45 891
681 -2.2849610913172871 1.7825456070190975 20.89435630537886 253 253 253 1.0775585349106864 38 2 40 2
472 -1.3186767049686592 3.9655066963074326 21.212109593818894 255 201 62 0.23186328653256388 49 468 44 414
607 -2.7411673150151787 7.8134613623633999 20.492285945416555 254 252 253 0.73467689841585126 38 392 44 986 51 590
474 -3.5568648382680563 4.5988261238814276 20.492926469066457 21 14 7 0.23403231382962553 42 446 44 425
685 -0.053896937255178398 9.2527278504575392 21.378193430418882 231 220 224 1.7458770877528063 38 16 40 20 45 21
476 -1.4598895281071367 3.2784720835507506 21.286966985955033 255 205 82 0.40310366628392175 42 765 44 428 40 825 45 861
595 -1.8212125700735415 6.6648172158681405 20.620126752805831 249 248 248 0.14639235774261877 42 860 44 917
478 -0.99314947620513871 3.0116786006274467 21.398303573942563 255 197 50 2.0576906272041438 38 814 42 431 51 736 44 435 48 954 48 960 40 741 45 1032
480 -1.4144813119812376 3.371666034574488 21.269699193941459 76 24 3 0.25216109386766833 42 473 46 510 48 517 51 515 44 441 40 392 45 539
625 -1.0901294298213198 5.5652520479762284 20.90636271022046 221 152 0 0.25591807619228929 46 1315 47 1310 48 1332 50 890 51 1350 44 1089
615 -2.2585009748280647 8.5491292061821991 20.097181080092174 197 191 195 0.89566978618633686 51 1284 45 754
484 -0.79561032442810076 0.31203946245775221 22.414718447940064 65 63 64 0.95889958497065841 38 479 42 511 46 544 47 530 48 547 49 515 50 563 51 551 44 455 40 418 45 584
629 1.9373542768671583 4.7953163845989124 20.705820016425644 245 175 53 0.64873578024771783 38 1273 44 1106 45 1497
486 3.0928010374243633 -0.005934444799595897 21.466116110974365 43 34 35 1.036478237092971 38 376 46 436 47 430 48 425 50 388 44 460 49 806 51 849
488 -0.76847368965380125 6.7388158024221108 21.665112544513292 22 16 16 0.76748963771829748 46 143 47 120 51 140 44 479 48 123 49 133 50 143 38 108
633 -3.5029153130105182 4.793963276745818 20.666160088454827 73 73 74 0.44327960328985111 42 1311 44 1113 45 1506
623 2.1285297907914384 5.5784035764192499 20.588185023802836 17 15 16 0.65311584065584927 38 409 44 1077
490 -2.5721961142115393 6.2717852796965134 20.629255926769321 208 207 205 0.34825460503486316 49 616 44 495 51 652 40 672
637 -0.29679319076277194 9.1047776138325869 21.230655247924805 222 212 215 1.3942101529197677 38 603 42 1169 44 1129
611 2.1028979704199431 8.6278760530017973 22.131791797654962 253 251 252 0.15666399524638541 50 1404 44 1005 46 1253 47 1226
494 -2.3553601765134373 6.9039868201489156 20.62338708776883 37 37 35 0.42878060211998759 42 1026 44 514
496 2.497093851654316 6.7649269162902579 20.208156792812265 94 93 91 0.57084511647478264 38 1059 42 1033 48 1177 49 1130 44 525 46 1188 47 1149 50 1336 51 1189 40 929
577 2.3007997498840163 9.394600033961094 19.902740489812857 228 224 225 0.36536629705018592 42 682 44 845 45 1377
631 2.0833328035462531 4.6961107438871945 20.655094465320243 233 177 82 0.34849046605675055 42 1307 44 1111 45 1205
498 -2.1263562634831947 7.030363134554749 20.486709670284451 219 217 218 0.15063013490900778 42 621 44 528
500 3.259955236924355 7.0885741291599604 20.721267397421823 0 0 0 0.40468385593181933 42 1048 46 1196 47 1159 51 1201
581 -1.3757892659585431 3.8085120145371252 21.209555688099286 65 18 0 0.11214606294594953 46 1398 47 1382 48 1413 50 1211 51 1430 44 853
619 2.6492236687037529 5.7661811756163859 20.511935297912668 3 2 1 0.37505502382221223 50 1265 51 1475 44 1058 38 541 46 1070 47 1083 48 1203 49 605
502 -0.0025247533768982056 9.1663337004660885 21.611227965161863 253 242 246 0.45519664980243374 42 540 44 548 45 751
1092 2.0541534509516759 5.2711495811324047 20.550235228865134 61 64 57 0.21698503452063345 42 420 45 442
503 2.2148195168513745 8.696781964014864 19.960938587617587 253 250 251 0.75233107441888758 42 1175 44 557
504 -2.0756052614022069 8.8484519302313149 20.190077553850717 242 236 238 0.24306913824991927 42 531 48 713 44 558 38 612 46 711 47 705 50 828 51 718 45 609
585 -2.4732201821588822 6.23251495255312 20.722898855698826 18 17 13 0.40182425555672685 42 1237 44 868 40 836
639 -3.6535044686177245 4.4199169156054703 20.491819775435289 41 40 41 1.5982586436816584 42 785 44 1135 45 1529
506 -2.0752287395149338 9.0038810064169787 20.17949112394632 254 248 250 0.058711581344518454 42 513 44 560
589 2.2422152572131138 6.203010853779281 20.384544605597942 111 110 108 0.48663149991503235 47 646 44 887 38 553 46 647 48 647 49 627 50 768 51 659 40 492
627 2.0628588113548152 4.7963571549472475 20.652616931965643 238 183 89 0.14594254629414258 42 1299 44 1103 45 903
510 2.4596831708230584 9.1969578491570534 19.771305984178834 237 231 233 1.4769656472795256 38 923 44 569 40 819
512 -3.953157789458607 10.212198380704985 21.042553883156302 254 253 254 0.76501274537598918 47 1044 44 575 46 1059 48 1055 49 1403 50 1047 51 1083
514 -1.3790247642734577 4.0603598882220036 21.167394805332513 176 141 86 0.42881636249136196 38 699 46 818 47 808 49 785 50 705 51 821 44 587 48 824 40 379 45 517
516 0.73499700640070242 0.55613385206877386 21.77732659963424 30 24 24 0.5937226012329424 38 653 46 543 47 529 48 546 49 514 50 564 51 549 44 604
518 2.2404755916429586 2.1403451419700903 21.351407343280304 244 184 30 0.14652850441662063 42 743 44 615
520 -1.2519988006218647 3.0059382010572548 21.329748859636268 186 124 49 0.40953070687375032 42 759 51 794 44 628 45 855
522 -1.1050314239735073 3.1014226970029806 21.337671417460893 117 42 1 0.3261335316206333 38 683 42 760 46 789 47 782 48 794 49 764 50 679 51 797 44 630 40 609 45 859
524 2.2631881381187307 3.0345877433514712 20.965726002352298 242 173 33 0.64962973124523493 38 818 42 762 46 1098 47 940 48 961 49 910 50 1160 51 942 44 632
526 2.2186873928519861 4.8944174460528656 20.62176579346875 14 14 12 0.029480800910854588 42 804 45 1489
530 3.0261208828587303 5.2690699361449331 20.429411675030639 11 12 9 0.37845448133249687 42 1286 44 670 40 649
532 0.68053938096008615 5.5438328147029763 20.769036231306426 231 168 16 0.72340775681181269 46 1303 47 1299 50 899 44 673
534 -2.2049572858178093 5.9134747918532531 20.811339228713855 15 15 13 0.15854185259082976 42 827 44 681
536 -1.3006398594912383 6.0267999381086748 20.884529196688149 44 43 41 0.50365109805180552 42 413 44 684 45 429
542 3.5851234390231439 0.2213231328431336 21.383520534926987 88 87 83 0.41874789515469912 42 884 44 702
544 -0.87211027742348446 0.90112386013370338 22.00284871690577 88 68 47 1.7609052886809369 38 751 42 717 44 710
545 3.3364334854781172 4.1594722878562305 20.609756350203241 249 196 94 0.53216986837671287 38 1006 46 444 47 475 48 829 49 791 50 441 51 441 44 712
546 -0.69667010563845955 1.6718706761911186 21.639572799526338 220 160 20 1.4187249209228472 42 902 44 723 45 983
548 -0.78575052460927008 2.1711996514935192 22.538519755173496 75 35 4 0.70167773803513966 38 775 48 1438 44 727 46 929 47 1426 50 1121 51 1443
553 -0.65987684487821641 2.7280280124156815 21.318425801787257 78 68 43 1.7913074796541533 42 930 44 749 40 727
554 2.4699098367328567 2.688546686364369 21.261035638807993 249 249 236 1.503582604206523 42 752 44 751 40 724
556 -1.186858922111067 2.9576780785884687 21.326990077470874 249 195 106 0.20390011717991685 38 680 48 952 49 903 44 758 46 965 47 1071 50 1156 51 936 40 738
558 1.2866778602755633 2.8514414641197217 19.740349031915077 248 179 23 0.73290008063696521 51 941 44 764
560 -2.6873367270869775 3.16477620409594 21.320823699840425 252 253 249 0.57203940306028878 47 787 50 684 51 963 44 767
562 -0.70762747448466123 3.4913401918831264 21.177534705035807 65 62 57 0.70717889227972475 38 834 42 1347 44 775 46 1460 47 1445 49 963 50 1433 40 686
564 -2.7502477384401667 3.8797506419274717 20.98993401307516 255 165 93 0.69190279661612231 42 452 44 782 45 877
1232 -2.1660780833566395 9.0379288484097309 20.271037290782992 252 248 249 0.36255739612614513 44 810 45 1395
566 2.5334123993781947 8.7088422478305016 19.780128904311091 211 205 209 1.2999998317835513 38 894 44 802 40 794
568 -2.1045793283165031 9.0060431043404403 20.214529166924951 212 206 208 0.084761382881427372 42 1204 44 811
570 -1.9856003810713034 9.0713283646086751 20.18754350496209 213 207 209 1.4072811737034538 38 884 46 735 48 737 49 1238 51 725 44 816 50 1009
572 -2.1800437068809231 9.0520143957377979 20.209824078141725 210 204 208 0.085629046010057441 42 1209 44 818
1240 2.5821774348554816 5.6771060298677014 20.489612453066901 15 14 12 0.46733225736724626 44 1066 45 1452
574 -1.2775864829091881 3.8408203288999352 21.045455986100805 56 13 0 1.0897119699710272 46 1395 47 1379 48 1409 49 1369 50 1214 51 1426 44 824 38 1204 40 1096 49 1371
576 2.36241059255515 9.1464743798734656 19.938427786962066 230 226 227 0.66016375123898918 42 1217 44 832
578 2.4194317575162456 9.2431325846304269 19.655788300574653 240 236 235 2.6649764275628733 44 846 40 822 38 1242
580 -2.653140840090535 9.547777336563275 20.115998383040576 245 239 243 0.66600558145642652 38 922 44 851
582 3.31098714233601 9.5159622143232578 19.745103566663683 231 226 228 0.031255774117828025 42 690 44 854
584 3.2170372713981612 9.8927864104943559 19.535828697427707 218 216 217 0.5642853022564589 42 968 44 858 40 828
586 2.3524342536065692 6.0580604873476416 20.453275911415997 89 88 86 0.21499744649148236 42 1238 44 870 45 939
588 -2.5832930209194882 6.3434395874521723 20.549737081093888 208 207 205 0.19254109776386366 42 1193 44 882 40 844
590 2.6314505801135106 6.2909043935362732 20.374378773830035 76 73 72 0.39843853802298779 38 999 44 900 40 873
592 2.8238996649801829 6.3891347284497568 20.324829959761754 81 81 81 2.1883040547011219 47 433 51 433 44 909 40 500
594 2.7517495780163155 5.8570212939680006 20.43844861371862 47 44 44 1.1295783035144229 42 1251 44 916 40 832 45 1423
596 -3.686074747753199 3.7154692820626041 22.975543444114813 253 254 255 1.6921483767024219 46 1416 47 1396 48 1434 49 922 50 1188 44 918 51 969 46 1410 48 1428
598 -2.3742254115759209 6.7362516089289191 20.570312564209644 73 71 72 0.16557782915801736 42 1000 44 925 40 889
602 -1.403475999469781 6.8886304053406349 20.636083107875674 52 51 49 1.637587413341024 44 946 45 1171
603 2.5348970945186897 6.6973218758980027 20.226936762147215 22 20 23 0.50536470730583949 42 1018 44 947 40 918 38 1052 49 1126 46 1182 47 1142 48 1170 50 1331 51 1180
606 2.3717553595909857 5.8019692556832778 20.494122160276746 158 157 155 1.6744115968898663 38 950 46 1074 47 1137 50 1057 51 1127 44 977 48 1255 46 1072 49 1209 50 932 38 945 40 767
608 1.6753865036823423 5.992119934306845 20.510158719690637 221 178 125 1.4942835419898473 47 1059 44 995 46 1096 47 1056 48 1081 50 1254 51 1295 38 971
612 1.0757422988297172 8.3536047990778926 20.552903160330235 227 218 221 0.36196652169444737 48 1252 51 753 44 1008 46 1266 47 1238 50 935
614 3.1511386256533651 5.8237511537467359 20.253124175183242 19 15 12 0.48338662627528572 44 1031 40 284
616 2.4007113529260127 8.4974575951044304 19.869553748339921 202 196 198 1.1473067159339987 42 1149 44 1051 40 756 38 869 49 964 46 1004 47 984 48 997 50 994 51 1018
620 0.63189682924801482 5.8354857193937608 20.778813364257331 238 171 44 0.35316026399362793 38 1033 44 1062 40 661
622 -0.77501052841547757 4.0774626630312429 14.410257784595627 0 0 0 1.1164985026880474 38 1127 42 1269
624 1.7601694343355776 5.4633902218737838 20.65006678794148 234 169 27 0.68893040345929168 46 1307 47 1304 48 1324 49 1294 50 894 51 1346 44 1086 45 1462
626 2.1240310339447905 5.1299188938997746 20.636832731485626 42 38 37 0.22150058071312631 42 1291 44 1094 40 1042
632 3.4522196412910455 4.6389926226440208 20.506294368267266 250 185 33 0.82545488967530412 42 799 44 1112 45 902
634 2.8158662729704922 4.6476829515051534 20.623186875112076 10 9 7 0.1253768735937506 42 1309 44 1114
636 -0.52329260463522531 4.7186919728690802 21.006930468230845 231 179 63 0.1340406604433905 42 1320 44 1122 40 1071
638 -4.0826068645770581 5.1258527354315309 23.632158192836183 20 16 17 2.469914512632851 42 789 44 1133 45 1520
640 -4.2364491578792549 4.8255141025301791 22.812925606100155 30 28 29 1.3791576833182826 42 786 44 1137
641 -1.3303069410333916 4.5309873243429912 21.121225496965021 240 181 53 0.2751063915710954 49 1351 44 1138 46 1468 47 1359
642 3.3121077663598339 4.2351853111125326 20.677668869749247 55 31 2 1.2350630612385156 38 1185 49 1353 44 1142 51 830 48 831 40 1075
643 2.2217493854665684 4.3108836792316509 20.723058557271255 233 175 31 0.62760517055045917 38 1183 46 1375 47 1363 48 1389 50 1227 44 1143
644 2.5672622285469822 8.6034654109694149 19.845153955731792 0 0 0 1.1739716610027264 42 1153 46 1018 49 978 47 998 48 1010 50 1008
645 3.6249391181941615 9.3460794659330269 21.224117926727605 255 253 254 0.82619715391420445 46 1029 47 1010 50 1021 51 1048 44 1159 48 1024
647 -2.2312515588599107 9.0801600903979267 20.268320573848825 218 212 215 0.37394975227986604 42 677 44 1161 40 789 45 776
649 2.5339261626365368 8.4363905510799189 19.960402701822797 196 187 192 0.24766823358124831 38 614 44 1173
650 -1.1974710453244046 4.9903165112836376 21.010960635496652 226 157 2 0.7428540394480847 38 1164 46 473 48 480 49 1331 50 452 51 484 44 1178 47 460 49 588 40 1063
651 -1.1585460200486577 3.7609061104117179 21.209630936111367 238 173 45 0.40484813484462601 42 1337 44 1180 45 1065
653 -0.4314634822444241 3.3734159028310313 11.960687738627911 158 157 155 2.0412999179850995 38 1131 47 1288 49 1280 44 1184
654 -1.4181521739117644 3.8119434957908935 21.19539469518207 232 172 49 1.3032347325650335 42 777 50 1207 38 696 44 642 48 348 42 318 46 356 50 330 47 349 51 348 49 264 38 306 40 619 45 317
655 2.4383800058815832 7.6563349772650753 22.54774301942858 29 26 26 0.58595747853409808 42 65 44 70
657 -3.4359178944931092 9.7978595236793407 20.731206764762945 227 215 217 0.57751217464971671 44 7 40 7
658 2.3570007392113923 8.5258222014156537 20.226971070177399 210 204 206 0.61497688863696864 38 9 40 6
659 2.1986652657403596 8.0856939726697856 22.715418164878649 253 253 253 1.9164745496309876 42 9 44 19 45 27
661 2.3534142017856694 8.9398730431672941 22.500992247278454 197 187 193 0.92231064132321838 42 34 44 29 45 33
662 -1.3525778815308098 3.1060573039269479 21.18224825358018 78 52 28 1.3428865281477105 46 56 47 47 48 46 50 37 51 60 44 32
663 2.1021432066276042 2.6155276828512766 23.82956203859894 253 253 253 0.17721707049566732 42 32 44 33
667 0.0015143001417178975 3.0744821754928187 12.204940535014609 62 58 52 0.61282359971957834 46 376 48 369 51 365 44 396 47 372 49 439 50 358
674 -1.276931496361601 3.9238424399538814 21.190277214493161 235 168 41 2.4419446575916037 38 1265 44 803 45 1070
675 -2.0763422509046974 9.4713214913667745 19.922791115720283 246 240 244 1.3173202235588755 46 561 48 565 44 848 47 549 50 547
678 -2.5734334224213313 8.5752841732488818 20.06753150577801 195 189 193 0.74161718921792108 46 1278 47 1249 48 1264 49 1235 50 947 45 1341
680 2.8471368525262726 6.0147236797957415 21.800838355207439 29 28 26 0.48775455792537531 46 1 47 1 48 1 49 1 50 1 51 1 40 0
682 1.6892254393660526 8.8934083678823477 19.896102515439026 215 209 212 0.85666969429693951 46 16 47 19 48 18 49 15 50 18 51 16 45 15
683 1.8867885611165849 6.1067871193732204 20.262025540007158 26 25 23 1.0897038576289355 38 20 40 11
686 1.7067573261178322 2.4807808256826194 21.401745783097166 253 253 253 0.47116026219664775 46 19 47 20 48 19 49 16 50 19 51 19 40 23
687 3.498657489509609 5.2727423558979698 20.461879962143527 71 69 70 1.5589389181356577 38 11 42 38 45 61
689 2.0054690092116334 8.3435257209894225 20.097177794639606 203 192 196 0.51251559525277579 38 34 46 23 47 34 48 24 49 21 50 32 51 30 45 35
691 -1.8131740445505125 3.0741502884202738 19.812807893289552 0 0 0 1.4586058224851746 38 53 42 27
692 1.4725671625065233 9.026070710594194 20.333413010097988 216 208 210 1.1101170025158535 38 33 40 37
693 2.0767613237830647 1.3931307495772118 21.311588118325098 252 190 11 3.3022722694726845 38 32 40 43
694 2.9592109114793339 2.3022985887785636 22.692664559431506 0 0 0 0.58929105299766749 44 49 46 30 47 30 48 23 49 22 50 30 51 25
695 -1.3275535554937887 9.1448257150144681 20.645674412359909 210 204 206 0.86971990941187516 38 52 49 39 40 56 46 38 47 41 48 38 50 46 51 43
696 2.3065822602173163 1.62608314401208 21.311437915093343 145 107 64 0.24335140257349849 46 34 47 37 48 34 50 36 51 35 40 57
697 1.8296199902067478 7.0726626916477953 21.251621689392003 0 0 0 1.8355972962638771 38 86 44 124
698 -4.0371582517232927 3.9723364514192685 20.907768002970013 49 46 44 1.0028469902678112 44 36 40 62
699 -3.9384652242705789 3.0661972145746006 19.554027379286012 251 253 252 1.8706152004455623 44 54 40 64
700 0.42518142570239553 1.7244109290915182 21.722055491283818 62 35 9 0.66257675144069483 38 63 40 67 46 64 47 65 48 65 49 56 50 65 51 64
701 1.7714233253492744 1.6159758680550831 21.382651535183353 82 51 30 0.55244843578480995 38 62 46 63 47 64 48 64 49 55 50 64 51 63 40 68
703 -1.3595397099788302 9.3956333902297526 20.226432166087498 253 233 209 0.60074099310704643 38 102 46 86 47 111 48 93 49 92 50 107 51 103 40 75
704 -0.82649786271313053 2.5397242023049968 21.34483894101982 244 168 4 1.2340870996176412 38 95 49 114 40 76
705 -2.6819466641038407 8.7868143339567126 20.106686960128805 252 247 251 0.66662710021322136 44 113 49 186 51 199 40 77 38 172
706 0.81411803593188559 7.6944458113606311 18.626613563452722 231 222 225 0.65567587319468124 49 90 40 78 46 89 47 86 48 87 50 100 51 100
707 0.51400654259490497 8.7295981721924285 21.137563931283552 0 0 0 1.1189224657718275 38 80 44 80
708 2.3169135036271236 6.7274006041092349 20.291958232863283 246 244 245 0.66228323979727111 38 85 46 97 47 95 48 92 49 85 50 92 51 92 40 83
709 -2.4848187436506497 6.8650826486908727 20.41874702575608 237 235 236 0.069495487518599311 44 83 40 84
1061 -2.5523187282972284 7.7770221362996592 20.34606617333062 38 36 37 0.28530944833553906 42 245 45 230
711 2.1615175099239976 9.4366368446302324 19.7259812869741 227 218 223 0.52186347783046727 49 132 40 91 46 141 47 138 48 139 50 140 51 137
713 -1.6188154520025277 4.3531823877686708 21.065095059541783 15 13 8 0.6655405359726555 38 235 46 114 47 148 48 150 49 116 50 128 51 119 40 107
714 2.3145399319683024 5.5973741283392728 20.480304024874368 168 166 166 0.37425380007147296 38 138 44 228 46 118 47 115 48 116 49 109 50 134 51 127 40 113
715 2.4539919813248012 5.9642815310522481 20.675651120022568 150 148 149 1.0786660612295749 38 88 40 115 48 95 49 83 50 90
718 3.202568621772413 8.6723771588388434 20.385142806947314 0 0 0 2.8263295620527003 38 104 44 43
1069 -1.3105192465447051 6.4180717636094942 20.815372435349445 54 53 51 0.22472123190640225 42 403 45 273
719 2.1727255625779116 8.4919505628273839 19.871297550436541 252 246 248 1.0892246857571624 38 116 44 178 46 135 47 132 48 133 49 127 50 135 51 148 40 128
721 2.0634461233861972 9.1770898157999738 19.832363690641117 220 214 216 1.1029540424458664 38 122 44 161 46 139 47 136 48 136 49 130 50 138 51 135 40 132
722 -2.509459688596603 9.6976599391377238 20.195609404263255 225 219 223 0.56198025809678331 38 123 44 123 40 133 46 181 47 178 48 180 49 147 50 139 51 170
725 1.7660652301542008 8.4801151917211701 20.269677308104441 255 249 251 0.676392398182461 38 212 46 190 47 188 48 189 50 175 51 198 40 140 49 185
726 2.1181167487357415 8.7893886546680289 19.893745464199888 213 207 209 0.68160295651819092 44 167 47 182 49 143 40 148 46 184 48 183 50 182 51 156
727 -2.714061825841104 9.0987450423886056 20.208648961029155 0 0 0 0.4040664878798933 38 118 42 167 47 184 49 141 46 186 48 184 50 180 51 153
729 2.2494519925770855 1.3290256746258828 21.348312482678367 33 25 13 0.54064914198435998 44 136 48 202 49 152 50 189 40 161 46 179 47 177 51 160
730 2.3103168515219452 5.9625175107951121 20.492531641142136 14 13 10 0.28134123688592882 38 130 44 154 46 137 47 137 48 137 49 117 50 117 51 138 40 162
731 2.4537067866077051 6.6554673641296622 20.355868452784833 35 31 32 0.24388206490579012 38 180 46 196 47 193 48 194 49 179 50 168 51 193 40 165
733 -1.6339387802088203 4.0677254680411927 21.081514667130595 254 194 39 0.86536047043885367 46 151 47 147 48 149 49 115 50 127 51 118 40 178 45 180
734 2.5374100739835743 6.5756898965092612 20.342974449712344 90 89 85 0.39389729203582302 38 205 46 225 47 223 48 225 49 237 50 250 51 247 40 192
735 3.1778039948921553 -0.2494645179125026 21.555913474367891 0 0 0 0.79834142299845867 38 221 44 95 46 242 47 239 48 241 49 198 50 219 51 210
737 3.5978154136849767 2.8721347534756982 20.890006443444424 253 188 43 0.085021721058055763 44 245 40 210
738 -0.49171501054457945 3.6061194466178477 21.232280791033666 228 157 11 1.3467209475441027 38 260 40 214 46 163 47 166 48 164 50 198 51 177
739 3.8228677298376015 4.991039595610296 21.69994111479782 0 0 0 0.64001442309076939 44 226 46 475 47 435 50 450 51 362 48 482 49 446
741 2.6830873697857229 6.292758433219344 20.475299941193033 76 75 74 0.053795734477408694 49 233 40 229
742 2.3820903085048437 6.526820499875404 20.364856518021021 101 100 98 0.56672658038901802 38 204 40 230
743 2.3056784006744304 7.7405477809603704 20.488285802915613 204 198 200 2.1827920082311594 38 638 40 234 45 1257
745 1.964652254834274 9.1510210902904063 19.752165662516557 247 236 240 0.81955929487244461 38 218 46 204 47 179 48 204 49 145 50 205 40 240 51 159
747 3.3090758647243583 10.092529050601224 20.045753225600713 232 226 228 0.20628370967951609 38 374 40 243
749 1.857574924259894 1.9293348885165125 21.295419129692085 253 254 254 0.65004281162271382 38 243 46 268 47 264 48 266 49 294 50 284 51 280 40 250
750 2.0665415717153279 8.5849615411260345 19.828046996625691 235 229 231 0.30194280852338162 44 329 40 253
751 -2.8393650389684959 8.9854069025960097 20.337332636786197 234 228 231 1.1142957021629407 48 412 40 255 46 422 49 390
753 -3.5047398387843289 9.2813259813741773 20.89816556141804 255 251 252 1.3287129058471301 48 1442 51 993 40 258 46 423 47 418 49 392 50 422
754 2.5676041528822808 8.9246965370196882 19.69638921664615 233 227 231 1.4927601188874666 49 298 40 259
755 3.6498304092615217 2.9655271529264056 20.869853775888451 47 28 17 0.2348093885425335 42 907 44 633 40 269
757 -4.2021263100808373 3.5403233283728262 21.151502758597122 253 247 249 0.8445807333490436 46 1400 47 1386 48 1415 49 211 50 1205 51 1432 40 273 38 263
758 -3.6088112208691805 4.9628876684133179 21.262597624905798 90 88 89 0.16245131825399245 46 477 47 463 48 484 49 450 50 447 51 488 40 276
759 3.6150708245004064 4.8180293368650604 20.688404702814207 251 252 253 0.78464199506141219 38 319 45 326
761 -2.3637540135992463 6.5926199043939882 20.833841457093282 182 182 184 0.26259469815742498 38 288 40 288
763 -0.50355301751111781 3.1558806266726669 21.084956415910113 221 144 3 0.86418533122329078 38 257 49 260 40 302 46 282 47 278 48 277 50 298 51 291
765 -0.58716003776054271 3.251452300679456 21.140514192816202 230 164 41 1.15148296313623 38 305 47 269 49 389 40 305
767 3.0391707615542423 5.3837753151161465 20.442647405493815 43 44 42 0.81672989367200888 42 417 40 320 45 337
768 2.5824188125838821 6.3486027589473917 20.326648911010547 170 168 169 0.31269344432764667 46 241 47 322 48 239 49 278 50 321 51 315 40 325
769 -3.1612356822034742 6.7028523933397457 20.545782404656443 40 38 39 1.505939967843275 44 595 40 327
770 -3.139429119527275 6.9227208563427824 20.592005466893038 43 42 37 1.4733291529547596 44 941 40 331
1202 -1.7188958647296368 5.5543913871305746 15.343004167634144 250 248 249 1.1234691612314864 38 1067 46 1197 47 1160 49 1143 45 1225 50 1345 51 1203 48 1187
771 -1.3607068340574273 7.0605270188853382 21.223537349489884 104 102 103 0.086368239509199765 49 575 51 609 40 334
772 -2.1639715618455018 7.9271900570973806 20.391535107814697 220 214 216 0.019337626699998452 38 353 40 337
773 -1.7351282789840148 8.2757075480135587 20.528028588186032 212 202 206 0.51656611404666752 44 489 40 339
774 -1.408184974298293 7.3025724219626786 20.918634382847717 23 21 22 0.70881775773610278 38 294 40 341
1182 -1.8069231088899447 6.6063825552486968 20.709563244862068 85 85 85 0.21240979815974848 42 855 45 1131
775 1.3703422432013541 8.8920196196528032 21.354943485039463 254 251 252 1.3643855541325287 38 358 44 316 40 347
776 1.4290141272707046 9.1568526024964516 21.521145177240712 0 0 0 0.54624638654425828 42 380 46 573 47 561 48 578 49 542 50 534 51 577
777 2.1451520122640373 8.6525266669848246 19.921266781650203 216 210 212 0.97254218548868687 44 266 40 353
778 2.9667158455074909 5.0439691488691309 20.515100307896741 51 53 50 0.036062843119754495 49 349 40 363
779 -2.7578510120147963 5.2120165067221915 20.935145855149386 45 43 44 0.52920318457458138 46 464 47 450 48 469 50 461 51 476 40 365 38 422 49 440
780 -2.5757521793784486 5.3132253065529769 21.738346269660202 30 29 27 0.31017510312180846 46 1336 49 1325 40 367 47 1328 48 1354 50 869
781 -0.7405561111269694 4.8653765421167821 20.98527592087974 220 145 0 0.14763401638244489 42 585 44 403 40 371
782 -4.2378906672211603 4.7908312127909172 21.988490416197273 35 33 34 1.3371838237307603 44 252 48 256 49 214 40 374 38 236 46 257 47 254 50 225
1254 -1.2497079520307961 4.841650643768677 21.029888634040663 145 121 54 2.0658544468224722 46 1345 47 1337 48 1362 49 1335 50 1409 45 1503 48 1368 42 1313 46 1354 50 1290 51 1387 38 1172 44 1116 40 1068 51 1384 47 1340 46 1353 48 1367
783 -1.1803252614222621 3.4024217226508013 21.281467232113911 69 22 0 0.40954971479321411 38 688 49 771 40 393 46 801 47 793 48 807 50 692
784 2.6820300265845058 2.0583497910042903 23.292283494131677 114 73 47 1.5858610915404805 38 465 40 407
786 2.4326514424088979 1.364764424360595 21.475826740083281 250 248 234 0.10728983752591517 44 450 40 416
1154 -3.473011240946283 4.7217381397344358 20.544842749640452 88 75 66 0.65876757977760358 42 1319 45 895
787 0.43350361353129319 0.31208723195788773 21.861842921409817 45 41 42 0.011316287491747144 44 457 40 421
788 2.9614825073420366 0.15660664080542233 21.490848774689375 253 251 252 0.90631707313440013 38 733 46 866 47 860 48 855 49 811 50 1061 51 852 40 423
789 3.2552434820265796 -0.2577203648906366 21.386752966957072 34 32 33 0.96768839803710882 38 375 46 434 47 427 48 423 49 302 50 391 51 421 40 427
790 -4.0051965577477757 9.7561510134369378 21.452127577627415 228 224 225 0.13531322325099088 44 831 40 431
1262 -2.8698856704325482 8.774635433947088 19.965040576563688 217 211 213 1.1962104377641847 42 671 45 768
791 -2.9277226469139324 7.4994541172087894 20.264149020097669 253 253 253 0.32832550094836144 44 978 40 432
792 -2.0931788522665356 9.1569024524827007 20.335464681383197 216 210 212 0.40122763290819841 47 712 48 721 49 982 50 839 51 1032 40 435 46 721
794 3.1120482395286526 5.0914896556360532 20.421942140720944 66 59 53 2.0893318033592108 38 1151 51 627 40 455 48 614 50 738 47 846 49 1313 49 1312 50 740 50 885
796 -1.8022133399107436 6.9757352742169205 20.515344091932096 71 71 71 1.1189714695704407 38 522 40 464
797 2.3127542616946384 6.5218904258436208 20.287171195756009 32 31 29 0.37759094872434656 46 604 47 592 48 525 49 577 50 505 51 610 40 468
798 -2.159269742777679 6.2949102520096343 20.769900188398964 172 170 173 0.26407153132970318 42 566 40 476
800 3.1743857374562481 5.5350147431395769 20.339076742945938 56 52 51 0.64192893928177652 38 538 51 370 40 487 46 384 48 456 50 365
802 2.6845216909643002 6.1333381018712325 20.348953952260047 24 20 21 0.31497746918362279 47 1074 48 1099 49 1057 50 1446 51 1460 40 490
803 0.62948933991372624 0.17594793784186097 21.853572504760059 252 251 249 0.099933270924976447 42 871 40 491
806 -1.3447700685883202 6.8425002395332495 20.863521963923677 23 22 20 0.30680170130387074 46 610 47 597 48 441 49 500 50 501 51 613 40 501 38 524
1214 -2.1287246277104632 6.7461429326588025 20.718899900874231 221 218 216 0.25533420965797449 42 864 45 1275
807 2.1635088359422472 6.636298913092328 20.370412940373082 99 98 96 1.9423131128224298 46 1168 47 1133 48 1149 50 1319 51 1167 40 504 38 1040 48 1154 49 573 48 607
808 -2.4977180264705559 6.8473462760863422 20.50160830669677 250 248 249 0.29437424330819062 38 1030 44 513 40 507
810 1.5428888769588782 1.6775713762740425 23.421101810244448 79 30 5 0.42136565032852918 46 905 48 892 40 509
811 2.3000260285677792 6.667455946100791 20.24474234863829 253 251 252 0.5243261034511435 38 566 44 516 40 515 46 663 47 660 48 660 49 645 50 783 51 676
812 2.3265789667809198 6.7138424141016095 20.237032927762705 253 252 253 0.5138047348410647 38 570 49 646 40 516 46 1181 47 1141 48 1169 50 1330 51 1182
814 1.9353045964683939 6.8630250667495361 20.478806968995382 38 36 37 2.5100596708864678 38 1056 46 596 47 582 40 518 38 516
1158 -1.7835596239290752 5.9939381413551436 20.756990906295165 112 108 109 0.40429255133016984 49 604 45 930 38 389 46 448 47 539 48 452 50 485 51 642
815 2.5527044271437345 6.7192768458275456 20.197079820827007 228 228 228 0.66747996002823085 38 572 44 521 46 665 47 1147 48 663 49 1186 50 1335 51 1186 40 520 45 1168
816 -2.2221372332772802 7.0546080796381911 20.55652399355256 76 74 75 0.099163039507779147 38 569 40 521 46 601 47 588 48 606 49 571 50 508 51 604
818 -1.6873875609542435 8.0353761506614401 21.777173758390894 210 209 207 0.98339990427398494 38 266 40 528
820 1.2400089312599172 9.1917407694672075 21.959825374459474 252 242 246 1.4118146765133426 46 968 47 1268 48 1282 49 930 50 962 40 538 51 1153 49 677
822 -1.9809019528684964 8.8821504290625608 20.08412532848574 210 204 206 1.8403197648642318 47 382 40 550 50 421 51 411
823 -3.9071533245991277 9.8163020095523983 21.389766825557949 255 253 252 0.2620485147816396 44 837 40 554
824 -2.8782081066402121 9.3374607551377444 20.272377553783539 252 246 249 1.9714904123851631 47 1009 49 699 51 1049 40 556 50 1020 46 1030 48 1026
825 2.5608655645785583 9.1024543268214604 19.678719609410667 242 237 240 0.79635684448213162 47 1038 49 1019 51 1079 40 557
826 3.6089116405669586 1.0297929628831362 21.127800572016742 0 0 0 0.34531898962505725 42 725 48 876
1194 -3.476568337144831 7.4127523098921468 21.88301218898361 51 50 46 0.73417848734642932 38 342 47 591 50 506 45 1194
827 4.0495264016676709 6.0513326898086719 22.389292656739507 58 57 57 1.1849550005744238 49 1276 40 569 46 1204 47 1285 48 1304 50 912 51 1329
828 -3.8367020742390952 6.4074667931524463 21.873998176652222 248 248 250 1.1923632729684157 44 282 40 572
830 1.3719030115061457 8.9799005166330179 21.333503107520794 208 204 205 1.3853792355945587 38 851 44 545 40 576
1174 0.31469054015987397 3.6628527912722531 21.186675835613805 110 91 84 0.7791706821459039 44 910 45 1060
831 -2.7080589826796713 8.8656010070116107 20.190068230651661 254 249 253 0.32506651403459164 38 633 44 794 47 703 49 682 50 827 51 717 40 577 46 710 48 711
832 -0.47345388249282744 5.6369158501369041 11.572170648761485 0 0 0 0.64584173553942603 38 928 44 856 47 1043 50 1046 46 1058 48 1054 49 1024 51 1082
1266 2.2431299634790784 4.0352514709393423 20.680213593455509 240 194 58 0.84195206374176512 46 821 47 1370 48 827 50 1221 45 986 51 1415
835 3.031612563906128 -0.010607202397273089 21.61281667676764 249 247 248 1.793374100706719 38 731 49 486 51 269 40 583
836 0.89869125968665031 0.44091550565060106 21.800982869094739 253 253 249 0.095765047339029422 42 711 40 587
837 0.54525501247944175 1.4445210508867243 21.645159316321788 255 201 82 0.39493278207333671 38 472 40 595
838 -3.1503796073095529 3.6699820861814607 22.006624922301075 255 209 113 0.53075151864571291 46 503 48 511 49 400 40 617 47 490 50 607 51 510
839 2.792907451939509 4.6653446660055833 20.539386868391599 40 39 37 0.70662669108061715 38 710 46 837 47 832 48 843 49 584 50 726 51 845 40 628
840 -2.5221150603691562 4.9724894679984475 21.011357231068292 47 48 46 0.44177408167483878 38 711 40 629 46 476 47 462 48 483 49 449 50 448 51 487
842 2.8368611169152991 5.0420130704667478 20.665963435400929 110 109 107 0.37840354602296267 46 1326 47 1319 48 1346 50 879 51 1366 40 635
1274 3.2796827505129227 8.4045652432840505 22.567112423326428 252 252 252 1.5524226082421708 46 1241 47 1213 48 1229 49 1193 50 1394 45 1256 51 1268 47 1211 46 1239 49 1194
843 2.1931723689851035 5.1001868477866781 20.415162277027317 32 31 29 1.3106408639522118 49 436 40 639 50 884 51 438 51 1358
